ply
format ascii 1.0
element vertex 1315
property float x
property float y
property float z
property uchar red
property uchar green
property uchar blue
end_header
0.409058 0.0728085 1.82905 67 60 46
0.417679 0.0728464 1.83947 52 28 20
0.417722 0.0742666 1.83925 140 116 106
0.401795 0.0847098 1.82319 80 42 26
0.33369 0.0161092 1.84817 97 101 63
0.320257 0.0459993 1.85323 62 42 26
0.401585 0.0443919 1.89518 126 108 88
0.419433 0.0750642 1.83856 66 39 22
0.420398 0.0812291 1.83474 105 70 67
0.374129 0.0588012 1.85141 124 120 108
0.401843 0.0845627 1.82275 88 50 36
0.410477 0.125506 1.86362 94 64 64
0.404367 0.0408164 1.89788 142 156 114
0.406912 0.0470121 1.87788 151 141 109
0.417521 0.0719428 1.8488 27 10 3
0.345585 -0.0134865 1.87863 107 116 68
0.402333 0.0929305 1.8325 28 6 2
0.419964 0.0805451 1.83546 114 82 76
0.411383 0.13767 1.88788 98 64 57
0.382728 0.137537 1.8557 51 16 13
0.3854 0.14709 1.86456 81 37 28
0.38213 0.0877187 1.82093 64 24 9
0.340372 0.0668713 1.81285 139 130 90
0.3611 0.107894 1.83886 116 86 76
0.381993 0.127472 1.84809 64 16 8
0.423224 0.0508353 1.85627 74 52 30
0.288237 0.0348763 1.86519 75 66 25
0.367684 0.140562 1.86336 69 40 32
0.378252 0.0882211 1.82481 60 16 6
0.383382 0.148557 1.86804 82 40 30
0.41354 0.12476 1.86594 48 18 14
0.339574 0.0661458 1.79544 62 68 52
0.421067 0.0710346 1.84315 126 82 56
0.418013 0.0758738 1.83918 50 25 12
0.421393 0.0807193 1.83827 46 21 14
0.41922 0.0747679 1.84014 70 38 18
0.368571 0.140334 1.86221 90 66 66
0.385056 0.0774272 1.81741 24 8 4
0.419639 0.074268 1.83388 102 73 59
0.361137 0.049824 1.81227 50 53 16
0.346908 0.0620561 1.80598 79 81 63
0.369429 0.0660557 1.77321 48 46 30
0.410104 0.0729596 1.82632 26 20 6
0.422798 0.0792528 1.84369 66 40 32
0.358416 0.0910411 1.82626 115 93 87
0.398278 0.129088 1.85791 116 90 88
0.338838 0.019836 1.8507 107 110 64
0.411033 0.0245535 1.83557 68 75 57
0.350016 0.0279017 1.8516 94 100 50
0.361023 0.0329367 1.83634 143 140 94
0.355871 0.0473033 1.82114 127 130 82
0.360562 0.0498429 1.81283 40 43 10
0.361731 0.078638 1.78242 144 106 74
0.421114 0.0795369 1.83873 162 136 128
0.383158 0.104708 1.83331 122 98 94
0.420312 0.0170865 1.83651 75 84 66
0.345276 0.0238585 1.84859 116 122 78
0.358619 0.0322019 1.84256 157 154 108
0.361275 0.0466743 1.81608 154 152 108
0.361377 0.0486774 1.8121 151 150 102
0.361576 0.050176 1.81034 42 44 10
0.417581 0.0758861 1.83856 54 30 18
0.361627 0.0808837 1.77992 144 130 101
0.382622 0.104943 1.83519 118 94 91
0.408049 0.108648 1.84875 36 7 4
0.35981 0.0485237 1.81586 148 148 102
0.35856 0.0500277 1.81714 39 42 11
0.399464 0.111258 1.84579 114 86 83
0.364675 0.057283 1.86 34 14 4
0.38356 0.0739783 1.82394 86 69 58
0.416981 0.0726286 1.84361 34 12 6
0.360032 0.0386004 1.85038 44 51 12
0.40325 0.0920245 1.8324 26 11 10
0.382626 0.135683 1.85714 80 32 24
0.371836 0.0482891 1.83763 36 40 20
0.361247 0.12109 1.85461 128 100 94
0.394731 -0.066634 1.88902 110 114 62
0.419767 0.0158982 1.74521 123 124 84
0.41744 0.0404474 1.88113 122 134 92
0.413746 0.0435486 1.88037 98 112 72
0.414244 0.045416 1.86764 95 106 70
0.421074 0.0501258 1.88405 155 133 113
0.4233 0.0596672 1.86153 48 18 1
0.421305 0.0660818 1.85841 89 53 32
0.425703 0.0669167 1.84589 90 46 30
0.383748 0.0764202 1.81669 42 13 1
0.412802 0.0745361 1.82392 98 84 67
0.423669 0.0775732 1.85515 70 42 32
0.426893 0.0806853 1.86283 131 116 104
0.403056 0.0813976 1.82745 62 46 28
0.421185 0.080973 1.83784 60 32 23
0.425677 0.0874139 1.80282 90 74 54
0.416308 0.0986043 1.83888 118 98 94
0.428282 0.0916428 1.80366 108 106 86
0.414804 0.106433 1.85478 44 19 15
0.399988 0.111543 1.84443 114 89 86
0.426532 0.0998449 1.80177 138 129 114
0.400981 0.111829 1.84371 35 12 8
0.41408 0.114786 1.85894 108 80 77
0.428877 0.111233 1.81105 76 53 42
0.419701 0.0159959 1.74568 150 152 108
0.411534 0.040473 1.8879 59 55 26
0.420948 0.0500545 1.88511 155 133 113
0.423018 0.0594087 1.86466 48 19 2
0.361316 0.103824 1.83658 24 4 2
0.426452 0.0998107 1.80101 128 117 104
0.364347 0.120592 1.84749 112 90 87
0.434511 0.112378 1.81626 95 68 50
0.431011 0.111324 1.80544 63 36 21
0.423017 0.0598684 1.86227 75 50 33
0.412234 0.0747579 1.82854 84 72 55
0.425307 0.0762038 1.85534 64 30 14
0.420841 0.0814289 1.83461 138 108 100
0.42629 0.100791 1.80571 142 134 122
0.429098 0.111457 1.81194 71 42 28
0.430974 0.112541 1.8107 83 58 45
0.422189 0.0497043 1.88422 95 65 44
0.423808 0.0591399 1.85359 95 62 42
0.411984 0.0748772 1.83023 84 72 55
0.42449 0.0769827 1.84824 68 40 28
0.417188 0.0757247 1.81461 82 56 38
0.427735 0.0900775 1.80095 148 144 130
0.399627 0.111102 1.84569 102 72 68
0.428791 0.1117 1.81301 78 58 46
0.427474 0.0898608 1.80137 132 126 110
0.409474 0.0440077 1.89293 144 150 110
0.421985 0.0652578 1.85247 154 119 101
0.417029 0.076356 1.84071 44 21 9
0.427023 0.0904193 1.80847 92 84 66
0.398214 0.0999962 1.83963 34 12 9
0.431564 0.108677 1.79838 146 138 135
0.418118 0.0522999 1.86578 82 67 50
0.399611 0.115695 1.84226 52 26 22
0.434258 0.108616 1.80121 82 40 21
0.430572 0.11219 1.80829 134 114 105
0.429486 0.110022 1.80533 82 53 40
0.433084 0.112542 1.81536 91 52 32
0.458204 -0.0139309 1.82304 114 115 74
0.307152 -0.00439617 1.83616 93 96 47
0.289531 0.0346933 1.86381 54 46 10
0.309648 0.0328106 1.86484 109 108 58
0.39438 0.0352897 1.80597 90 98 88
0.315073 0.0408675 1.86171 140 129 98
0.319479 0.0466976 1.85812 140 128 86
0.322492 0.0507878 1.84464 78 54 34
0.363098 0.0623331 1.79555 92 95 69
0.329841 0.0678973 1.78384 74 77 50
0.32676 0.0716314 1.83631 96 54 32
0.383168 0.0758985 1.82599 39 26 19
0.424285 0.0714998 1.84743 90 43 16
0.359601 0.0830628 1.82518 90 66 55
0.350549 0.0875486 1.89149 65 44 36
0.427582 0.0721971 1.86862 52 26 12
0.382259 0.079655 1.81404 50 20 11
0.42556 0.0753297 1.8452 62 25 12
0.418361 0.0759102 1.83847 37 16 8
0.404069 0.0805672 1.81825 103 84 67
0.359164 0.0900145 1.82637 63 24 7
0.419177 0.0803493 1.81243 90 72 52
0.4214 0.0816372 1.83422 142 112 108
0.401909 0.0846974 1.82312 66 28 16
0.408431 0.0830037 1.81247 122 104 89
0.406273 0.0862346 1.81489 40 9 2
0.424968 0.0887758 1.89011 77 66 50
0.418099 0.0883164 1.8451 114 95 93
0.401645 0.111371 1.84148 42 12 10
0.399568 0.116143 1.84691 121 104 98
0.390849 0.118493 1.84379 93 49 42
0.398997 0.126402 1.85336 119 92 88
0.398861 0.128704 1.85518 118 93 90
0.411701 0.136715 1.88306 122 96 91
0.412752 0.139319 1.89026 79 51 45
0.408333 0.137175 1.87619 80 54 54
0.410483 0.139289 1.88562 80 60 58
0.384541 0.144654 1.86145 127 88 78
0.390953 0.147566 1.86656 78 38 30
0.333345 -0.0304222 1.87863 116 122 76
0.459041 -0.0140968 1.82218 161 163 120
0.337068 -0.00563859 1.86598 110 113 68
0.324384 0.00827156 1.84156 92 94 51
0.307799 0.032511 1.86782 106 104 56
0.28216 0.0374629 1.87094 134 122 70
0.384845 0.0410348 1.81363 78 83 68
0.318787 0.0460259 1.86211 102 86 50
0.320146 0.0467978 1.85771 140 126 82
0.322465 0.0503908 1.84709 132 116 77
0.328109 0.0713685 1.83381 98 58 37
0.329589 0.0750332 1.8389 170 146 124
0.368799 0.0766907 1.78326 106 109 78
0.375031 0.0770141 1.82437 26 12 10
0.417439 0.0733297 1.84144 44 23 14
0.421228 0.0799776 1.83583 152 127 120
0.406351 0.0822323 1.81616 132 109 96
0.417428 0.0808956 1.81724 155 138 125
0.420127 0.0817987 1.83817 140 110 108
0.356691 0.0964555 1.83552 122 83 73
0.42479 0.0898553 1.89001 123 110 94
0.418155 0.0880861 1.84486 119 102 99
0.42415 0.0913226 1.8872 46 24 10
0.421455 0.0960621 1.87195 34 12 4
0.361458 0.10827 1.83894 116 85 78
0.421796 0.100561 1.87365 125 110 102
0.420965 0.102455 1.87765 114 102 95
0.420774 0.102764 1.87349 42 23 16
0.301495 0.116239 1.75619 81 69 52
0.400262 0.1108 1.84235 121 96 92
0.398724 0.112088 1.8442 44 14 8
0.400582 0.111972 1.84484 38 11 10
0.399685 0.127698 1.85188 120 96 93
0.412956 0.136102 1.8822 74 40 36
0.408999 0.136632 1.87446 79 52 52
0.396569 0.146703 1.87121 86 51 44
0.394899 0.14863 1.87068 83 46 38
0.460366 -0.0144182 1.82258 41 44 15
0.457216 -0.0138343 1.82519 148 150 105
0.45612 -0.0141728 1.82707 95 97 57
0.313435 -0.000107598 1.83657 94 96 52
0.350084 0.0346603 1.84605 80 82 53
0.313097 0.0406972 1.86422 145 134 96
0.319027 0.0466963 1.85979 140 126 82
0.417561 0.0415655 1.87292 126 144 105
0.382806 0.0763185 1.82716 48 34 28
0.385507 0.0774142 1.81561 36 18 12
0.416964 0.0731962 1.84195 34 12 6
0.361319 0.0832783 1.82228 43 16 6
0.415504 0.0756283 1.83969 118 86 66
0.417883 0.0756211 1.8388 59 36 26
0.368377 0.081881 1.77708 97 102 76
0.425729 0.0753353 1.84426 62 25 12
0.415054 0.0773003 1.81991 134 116 98
0.357972 0.0909745 1.82733 122 95 85
0.419111 0.0806237 1.83916 80 46 40
0.377052 0.0880724 1.81843 92 44 16
0.407909 0.0845654 1.81788 141 124 116
0.419467 0.0875788 1.84333 34 13 9
0.360403 0.0928518 1.76902 124 114 94
0.365936 0.0921888 1.76668 94 94 72
0.40354 0.0910079 1.82623 70 50 44
0.422211 0.0979793 1.89251 140 131 120
0.363144 0.0978623 1.76396 82 87 58
0.382962 0.104669 1.83362 116 89 84
0.420867 0.102102 1.87711 122 108 102
0.383346 0.126685 1.84618 56 12 4
0.365356 0.113044 1.75435 84 74 50
0.363997 0.114186 1.75496 98 86 66
0.404106 0.143572 1.87472 81 54 53
0.393026 0.149558 1.87573 140 104 98
0.456103 -0.0139741 1.8266 90 92 52
0.306295 -0.000239707 1.83117 66 69 48
0.395751 0.0395349 1.84248 96 99 83
0.409377 0.0429208 1.89573 140 142 112
0.412365 0.0464263 1.86818 120 107 78
0.43295 0.0529572 1.84661 114 78 64
0.371326 0.0713438 1.78887 20 18 8
0.428444 0.0647522 1.85179 94 66 50
0.426555 0.0656562 1.84692 112 66 52
0.371219 0.0767442 1.77771 110 112 80
0.375068 0.0776265 1.82503 14 4 0
0.370128 0.0774636 1.77921 106 107 77
0.419959 0.0713382 1.84297 45 16 4
0.423333 0.0714914 1.85054 90 46 20
0.372793 0.0801345 1.82399 23 8 4
0.359721 0.0830747 1.82306 94 76 64
0.417017 0.0739918 1.84036 122 102 93
0.415334 0.0745132 1.83882 48 25 14
0.417928 0.0756359 1.8375 52 29 16
0.414309 0.0775886 1.82196 112 96 76
0.367569 0.0888225 1.82093 116 63 36
0.419874 0.0804568 1.83229 70 30 24
0.409202 0.0844453 1.81261 146 125 120
0.419101 0.0878318 1.84535 34 14 10
0.366286 0.0922543 1.76571 104 102 80
0.402153 0.0913961 1.82927 70 48 42
0.361386 0.102032 1.82995 28 8 2
0.3646 0.0974291 1.76133 96 100 74
0.360542 0.108197 1.84051 118 86 76
0.423436 0.0995439 1.87152 27 8 2
0.380834 0.112272 1.83957 55 18 8
0.364185 0.12035 1.84781 120 99 94
0.399347 0.118588 1.84859 119 102 98
0.382382 0.127367 1.84809 56 12 4
0.394188 0.14898 1.87004 78 43 35
0.277082 -0.0248805 1.8257 96 101 60
0.290073 -0.013501 1.82685 92 90 70
0.338851 -0.0153697 1.86746 91 101 66
0.333735 0.0161369 1.84784 86 90 51
0.389989 0.0252423 1.86835 148 154 116
0.40449 0.0408643 1.90132 141 149 108
0.409086 0.0401671 1.89901 60 45 22
0.397657 0.0441137 1.90797 123 106 93
0.340302 0.0652955 1.82958 56 56 38
0.329418 0.0728879 1.83195 166 140 117
0.43156 0.0584018 1.85063 88 60 40
0.428348 0.0640726 1.85287 98 70 52
0.423737 0.071457 1.84842 94 52 26
0.408833 0.083965 1.81198 150 124 121
0.423038 0.08908 1.86558 28 7 3
0.366053 0.0923839 1.76613 104 102 80
0.358783 0.102517 1.83312 28 9 3
0.398201 0.119186 1.85171 108 91 86
0.409345 0.140267 1.8853 76 48 48
0.323353 0.047196 1.8525 150 140 87
0.320257 0.0502122 1.85076 129 114 74
0.363303 0.0508589 1.83523 80 82 50
0.404046 0.0401491 1.90253 144 154 112
0.410522 0.0406259 1.89013 56 33 16
0.319326 0.0708947 1.843 140 128 96
0.425259 0.0661104 1.85085 139 92 76
0.369723 0.0771861 1.77999 102 105 76
0.418023 0.071908 1.84716 30 10 3
0.417719 0.0738983 1.83799 134 114 106
0.382203 0.084379 1.82943 40 13 6
0.421537 0.0903716 1.86959 30 8 4
0.363434 0.0982245 1.76281 95 97 72
0.399446 0.117932 1.84759 120 104 100
0.366703 0.129104 1.85224 108 74 67
0.318 0.0473563 1.86157 148 140 88
0.435553 0.0308401 1.87234 148 154 114
0.369651 0.0508926 1.82014 72 76 45
0.40408 0.0455668 1.90261 111 96 68
0.372127 0.0791572 1.82185 16 7 6
0.416971 0.072233 1.84403 40 13 7
0.379386 0.0878862 1.81595 63 20 8
0.367522 0.0909753 1.77052 90 88 66
0.422771 0.0950914 1.85915 46 22 17
0.367774 0.109923 1.83821 28 8 3
0.383661 0.110567 1.83512 107 74 68
0.36442 0.112594 1.75774 71 68 36
0.36264 0.113823 1.75849 82 72 48
0.379969 0.138436 1.85773 41 11 2
0.398569 0.136438 1.8583 94 62 60
0.339292 0.0508972 1.84394 148 141 85
0.378603 0.0643259 1.8594 114 116 110
0.385804 0.0771399 1.81659 14 6 4
0.418265 0.080415 1.83188 72 38 28
0.356298 0.113837 1.75199 101 96 76
0.364618 0.112562 1.75669 113 108 81
0.30069 0.0311478 1.86897 116 114 62
0.440424 0.0226878 1.86734 81 84 43
0.412604 0.0745379 1.82242 32 26 18
0.40613 0.083185 1.815 64 32 13
0.361091 0.107776 1.8392 110 77 66
0.40042 0.110495 1.84196 122 95 88
0.361427 0.10767 1.83841 110 76 64
0.412027 0.1172 1.86184 112 88 87
0.385244 0.126918 1.84784 50 11 4
0.346615 0.0315593 1.84299 72 76 48
0.417934 0.0880904 1.84832 74 59 55
0.36777 0.139941 1.86349 124 82 76
0.415277 0.0759214 1.83979 113 82 63
0.327323 0.0587662 1.8386 132 124 68
0.400479 0.110383 1.84156 106 76 70
0.360833 0.107957 1.83928 100 64 52
0.383575 0.124931 1.84641 110 68 56
0.381635 0.13756 1.85557 42 10 4
0.368563 0.0819755 1.7748 76 82 54
0.398034 0.13662 1.8601 118 90 87
0.379898 0.148871 1.87075 103 50 32
-0.165725 0.237764 2.97843 134 104 82
0.362403 0.0811049 1.77771 106 100 74
0.370206 0.0945022 1.88035 87 44 22
0.365613 0.142465 1.86937 92 50 45
0.413347 0.137205 1.88927 96 66 60
0.366189 0.0909628 1.77308 110 105 84
0.364761 0.0918775 1.77484 153 144 125
0.345485 0.128359 1.87006 101 62 42
0.367155 0.109259 1.83696 28 7 4
0.400153 0.0278414 1.78657 96 100 93
0.430668 0.0296722 1.87136 94 101 60
0.405299 0.0480245 1.87962 32 16 2
0.342447 0.107818 1.85541 139 118 96
0.341552 0.11225 1.86916 119 80 66
0.462252 -0.0168527 1.81999 94 97 54
0.440606 0.0229489 1.86673 78 85 40
0.362707 0.0628456 1.79579 54 56 34
0.363015 0.0282415 1.83438 148 149 101
0.409991 0.138517 1.89096 83 52 46
0.460648 -0.0146873 1.82303 38 41 18
0.409494 0.138925 1.89145 92 62 58
0.349368 0.0343593 1.84686 85 84 58
0.342954 0.123398 1.87224 131 102 85
0.345165 0.128575 1.87025 130 103 82
0.344494 0.00301955 1.78587 70 70 24
0.346382 0.134047 1.87732 138 116 96
0.383624 0.135624 1.85499 98 58 52
0.337337 0.119038 1.87284 106 76 54
0.347368 0.139682 1.87963 98 66 52
0.347682 0.00436554 1.7825 60 68 22
0.37844 0.0557688 1.85672 97 99 95
0.376155 0.0577189 1.86046 114 112 113
0.332753 -0.0307207 1.88 106 112 70
0.338958 -0.0154362 1.86762 95 102 70
0.40555 0.0292162 1.83978 86 88 74
0.394529 0.0361499 1.80541 86 96 84
0.360812 0.0864866 1.82212 108 58 28
0.367606 0.0887943 1.82089 89 37 16
0.448769 0.0666099 1.67413 98 89 66
0.400425 0.0934123 1.83221 34 8 4
0.419736 0.0903895 1.80136 78 66 47
0.421442 0.104019 1.87386 28 10 8
0.409609 0.128543 1.86966 115 88 88
0.326247 -0.0387847 1.88364 110 113 68
0.334473 -0.022083 1.87085 92 98 66
0.351558 0.0438626 1.82913 115 113 65
0.362061 0.0475788 1.81354 38 44 10
0.368044 0.0885727 1.81989 118 68 42
0.452378 0.066353 1.66041 98 81 56
0.325831 0.0087349 1.83925 110 112 66
0.399682 0.0272766 1.78843 94 100 93
0.361955 0.0475947 1.8134 38 44 12
0.361131 0.0489957 1.81356 102 103 70
0.367589 0.0887206 1.82072 84 32 12
0.400504 0.110734 1.84192 124 100 96
0.40946 0.126544 1.86505 61 30 28
0.334033 -0.0224189 1.87147 91 98 66
0.313292 -0.000141463 1.83666 69 72 30
0.363921 0.0297297 1.81622 150 148 100
0.34801 0.0283999 1.8477 80 83 52
0.45563 0.0564383 1.65565 118 94 54
0.369889 0.0816125 1.7741 95 98 72
0.368205 0.082868 1.77621 98 99 70
0.361403 0.0896757 1.82297 60 19 10
0.400329 0.110642 1.84237 119 96 91
0.343249 0.00222391 1.78764 74 74 28
0.308377 -0.00375504 1.83401 98 97 52
0.313315 6.08065e-06 1.83637 69 72 30
0.330048 0.0126938 1.84364 96 94 54
0.338666 0.0200044 1.8502 80 82 41
0.433823 0.0477209 1.85953 101 66 52
0.365137 0.112596 1.75677 70 68 32
0.411796 0.140301 1.89474 80 53 44
0.337638 0.0198402 1.85136 78 82 43
0.345943 0.0228377 1.84291 156 154 106
0.434845 0.0488154 1.85068 131 98 81
0.340201 0.118039 1.86741 114 89 66
0.373971 0.0407139 1.82513 114 108 69
0.383629 0.134987 1.85374 91 44 32
0.360961 0.0453123 1.81693 150 148 95
0.360705 0.0475445 1.81363 35 38 17
0.420435 0.0503868 1.86281 90 74 48
0.377771 0.139626 1.86356 56 16 8
0.333229 -0.0230759 1.87382 96 102 72
0.342066 -0.0135431 1.86103 97 104 70
0.356805 0.0117349 1.85183 108 114 79
0.379133 0.0113702 1.87411 148 156 126
0.373602 0.00910511 1.89274 138 144 117
0.361765 0.0234104 1.85186 112 119 79
0.394082 0.0283731 1.85249 151 155 120
0.322986 0.0367667 1.86307 126 127 78
0.404826 0.0337658 1.84171 80 86 76
0.391898 0.0392371 1.82316 132 141 114
0.391273 0.039984 1.82447 143 150 122
0.315019 0.0461867 1.86813 145 130 88
0.391097 0.0402599 1.82416 116 122 98
0.382734 0.043231 1.88904 128 112 81
0.418442 0.0419886 1.86839 122 136 96
0.398847 0.043494 1.90763 120 102 82
0.348132 0.0585572 1.82758 140 139 91
0.4181 0.0526111 1.89002 129 112 92
0.32946 0.0677207 1.8324 132 88 70
0.369558 0.0713776 1.78815 100 108 82
0.427261 0.0657636 1.84296 110 64 49
0.382406 0.0742489 1.82487 36 20 10
0.369904 0.0764682 1.78123 114 120 87
0.378086 0.0766613 1.81655 22 6 2
0.429086 0.0694826 1.85205 117 92 79
0.425081 0.0830021 1.88442 134 123 108
0.346464 0.0985423 1.8391 138 114 91
0.430143 0.0857795 1.85118 126 112 96
0.424835 0.0905665 1.8833 62 41 22
0.360264 0.101931 1.83436 106 70 63
0.422595 0.0978187 1.88783 134 122 109
0.346963 0.111385 1.85034 146 119 97
0.421332 0.102015 1.87087 47 28 22
0.402695 -0.0243181 1.84776 138 144 98
0.389803 0.00617161 1.84393 131 139 98
0.380937 0.00456573 1.87226 69 78 38
0.393342 0.0354446 1.80848 92 100 92
0.327877 0.0391294 1.86719 127 126 72
0.39156 0.0394455 1.81287 82 92 81
0.391939 0.0393848 1.82245 108 117 92
0.378309 0.0428105 1.81809 107 106 68
0.347066 0.0620521 1.80515 74 78 56
0.418127 0.0527462 1.88927 129 112 92
0.420073 0.0545715 1.88134 46 22 4
0.364005 0.0819304 1.80517 94 70 46
0.427021 0.0775859 1.85055 108 78 68
0.369975 0.0857504 1.77668 50 59 40
0.345932 0.0987791 1.84002 151 130 106
0.402722 0.087845 1.82901 37 6 2
0.423181 0.0995472 1.87119 37 18 12
0.350233 0.119655 1.85607 128 100 81
0.364259 0.120573 1.84769 106 84 82
0.433758 0.100346 1.79491 64 32 16
0.365348 0.113084 1.75473 78 72 42
0.365175 0.113533 1.75298 106 94 77
0.392792 0.0085604 1.83357 136 143 100
0.398017 0.0139924 1.8153 104 110 71
0.357389 0.0120193 1.84997 100 107 70
0.397883 0.0236692 1.81258 80 89 60
0.363621 0.0398464 1.84347 55 56 16
0.371342 0.0763438 1.77771 113 116 86
0.369161 0.0778614 1.78083 98 101 74
0.367062 0.0831123 1.77839 100 100 73
0.423959 0.0774783 1.84702 66 35 27
0.421459 0.0798057 1.85129 61 33 26
0.366728 0.0907533 1.77322 142 142 123
0.416249 0.112358 1.8471 96 64 60
0.317032 0.00350112 1.84193 94 96 56
0.410571 0.0177822 1.75208 131 132 92
0.329209 0.0124688 1.84491 87 90 52
0.391373 0.00892331 1.83683 141 148 106
0.349645 0.0276946 1.85193 89 94 48
0.393431 0.0276707 1.85481 142 148 112
0.440492 0.0231991 1.86598 82 84 46
0.323098 0.0500973 1.87938 122 108 66
0.419658 0.0548105 1.8857 55 26 4
0.402726 0.0705577 1.84234 16 16 4
0.373725 0.0785311 1.82359 60 38 32
0.405249 0.0833953 2.04553 88 71 53
0.427383 0.0736743 1.86798 52 24 14
0.426979 0.0792379 1.88131 94 84 67
0.422115 0.0796872 1.8339 152 127 120
0.426231 0.0829757 1.87804 148 141 126
0.418269 0.087322 1.84407 124 104 100
0.422243 0.09791 1.8903 127 114 101
0.342932 0.112965 1.85919 148 120 98
0.420831 0.101955 1.88002 121 110 104
0.364564 0.108399 1.83619 28 6 2
0.422992 0.105032 1.88997 94 74 53
0.364443 0.118804 1.84485 110 82 72
0.365643 0.112971 1.75433 77 71 41
0.364852 0.113741 1.75359 106 94 76
0.352068 -0.00649444 1.86643 89 102 54
0.347956 0.0250908 1.84163 78 84 47
0.440148 0.0229431 1.8667 88 88 52
0.313057 0.046063 1.87173 148 135 84
0.335824 0.0508509 1.85164 124 106 67
0.352428 0.0617771 1.8097 76 78 56
0.422734 0.0549037 1.86032 60 41 28
0.429029 0.0606279 1.85343 92 64 40
0.359989 0.0903435 1.82627 74 27 18
0.359148 0.0918378 1.82871 39 14 7
0.358759 0.0955472 1.83006 101 62 53
0.421207 0.0858039 1.82729 110 89 84
0.421382 0.098533 1.89408 104 86 74
0.42227 0.102133 1.86195 40 23 17
0.364337 0.120157 1.8466 118 94 90
0.354514 0.128591 1.85754 135 110 90
0.399372 0.119937 1.85404 38 12 10
0.407796 0.128937 1.87764 98 69 70
0.461381 -0.017393 1.82439 156 161 112
0.305141 -0.00637213 1.82838 96 94 60
0.334049 0.016502 1.8467 71 76 42
0.403647 0.0202968 1.79341 140 148 108
0.423519 0.0696405 1.8444 116 74 48
0.384865 0.0796604 1.80881 106 72 62
0.353494 0.0888827 1.82745 118 68 41
0.420488 0.0841875 1.8143 62 46 28
0.421495 0.0962436 1.86761 25 8 4
0.374661 0.10566 1.83139 36 6 0
0.421127 0.110152 1.88499 82 56 42
0.434953 0.100587 1.78867 108 80 59
0.367873 0.111401 1.75235 68 66 30
0.318826 0.00218304 1.82698 100 102 60
0.336503 0.0170826 1.84151 99 104 62
0.345731 0.0244472 1.84556 75 81 44
0.394419 0.0272831 1.85023 110 118 78
0.381978 0.0397865 1.85248 112 120 91
0.325714 0.0572064 1.83969 151 144 88
0.41886 0.0488346 1.89997 128 105 87
0.427734 0.0612638 1.85969 133 104 84
0.38332 0.0772241 1.82325 22 10 4
0.419782 0.0845209 1.92538 140 130 117
0.398059 0.0796131 1.72744 152 120 94
0.36014 0.0960467 1.78095 154 144 121
0.395649 0.0267416 1.84699 148 156 114
0.346293 0.0552724 1.83096 148 143 88
0.383622 0.0653629 1.86642 10 8 4
0.423201 0.0761104 1.85538 100 68 57
0.366843 0.0915453 1.77066 82 80 55
0.451341 -0.0119274 1.82882 132 132 90
0.434138 0.0227877 1.72255 120 126 82
0.428892 0.00966117 1.83351 72 80 66
0.414956 0.0207671 1.83311 68 75 58
0.41608 0.0524103 1.88608 78 62 42
0.370392 0.0720471 1.79044 16 16 4
0.361128 0.0926453 1.76759 123 115 90
0.301994 0.116355 1.75564 96 83 66
0.413886 0.12484 1.86811 48 12 5
0.409347 0.128004 1.87685 98 68 64
0.436546 0.00129322 1.82541 74 81 52
0.405224 0.0457346 1.90293 140 131 98
0.329583 -0.0342031 1.88407 146 150 101
0.463194 -0.0185925 1.82311 122 127 82
0.393478 0.0357827 1.80795 92 100 90
0.40928 0.0378136 1.89643 59 58 26
0.421613 0.0491049 1.89795 92 63 42
0.408878 0.0376057 1.89824 70 70 38
0.330044 0.0815803 1.83862 103 59 34
0.367074 0.112193 1.7508 80 72 42
0.456149 -0.010784 1.81558 158 162 110
0.367964 0.11161 1.74915 76 69 38
0.461093 -0.0162332 1.8276 42 48 19
0.291077 0.0346106 1.86134 53 46 13
0.426641 0.00922583 1.83021 68 76 52
0.418215 0.0173537 1.83251 82 86 66
0.391723 0.0392054 1.81368 74 84 70
0.422149 0.0371748 1.87395 130 139 104
0.322987 0.0558114 1.8431 142 128 78
0.428901 0.0701938 1.85225 74 48 34
0.420697 0.0717771 1.84445 94 48 21
0.4258 0.0765066 1.88523 70 58 44
0.425865 0.0797174 1.88837 102 92 78
0.421697 0.0808115 1.83617 74 54 50
0.424037 0.0878428 1.89386 112 102 85
0.42413 0.0890451 1.89434 42 32 18
0.423035 0.0942897 1.87038 102 78 68
0.418213 0.0932632 1.84504 120 100 97
0.421399 0.0978073 1.89685 137 126 113
0.417601 0.104793 1.8604 106 76 73
0.364077 0.118985 1.84646 124 90 80
0.419619 0.112781 1.8818 111 90 84
0.399974 0.118362 1.84674 114 95 92
0.412282 0.136149 1.88121 115 90 86
0.412765 0.136588 1.88349 70 40 34
0.398207 0.136201 1.86046 122 99 96
0.451022 -0.0134358 1.83306 139 142 100
0.450245 -0.012796 1.8319 94 98 54
0.355419 0.0584929 1.81091 139 138 86
0.425964 0.0752941 1.84383 62 26 10
0.4163 0.0794563 1.81855 117 100 84
0.417172 0.0934551 1.84735 120 98 96
0.415095 0.0949807 1.84949 32 9 8
0.420876 0.0963649 1.87455 35 16 8
0.364503 0.120343 1.84742 114 86 76
0.34166 0.027946 1.84228 79 80 54
0.409799 0.0379765 1.89286 77 74 43
0.40595 0.0390393 1.90179 144 147 110
0.429087 0.0741601 1.85209 76 56 50
0.41672 0.0895072 1.8461 24 2 0
0.4232 0.0984356 1.88458 50 30 19
0.420825 0.102976 1.87302 28 17 16
0.419536 0.110039 1.90054 120 104 90
0.363111 0.1196 1.84842 115 82 70
0.401316 0.110198 1.84003 115 90 84
0.419343 0.112527 1.88218 104 83 79
0.366815 0.129154 1.85343 118 78 70
0.417541 0.122972 1.88779 108 84 79
0.414776 0.134813 1.89458 101 72 65
0.385021 0.13579 1.85373 116 86 82
0.359465 0.0578324 1.80455 139 138 86
0.425735 0.0757023 1.84414 56 25 12
0.424188 0.0786043 1.84698 104 76 68
0.4262 0.0820485 1.8576 85 67 58
0.418194 0.0874709 1.8445 118 99 96
0.418828 0.117644 1.90274 82 61 47
0.414581 0.135036 1.89434 103 78 70
0.414497 0.0386285 1.88558 140 154 110
0.42627 0.0756492 1.84159 55 25 14
0.423939 0.0787604 1.84881 110 79 72
0.421116 0.0811587 1.83312 132 102 97
0.417787 0.0875175 1.84511 90 68 66
0.422467 0.0897122 1.86791 21 8 4
0.424254 0.0911863 1.88492 34 14 4
0.403151 0.0911978 1.82686 98 72 67
0.423415 0.0916896 1.8855 39 19 10
0.361764 0.101303 1.82902 43 12 3
0.421937 0.101239 1.87297 98 88 82
0.421566 0.103066 1.869 39 24 22
0.417906 0.122737 1.88625 98 74 69
0.372349 0.110226 1.74537 104 92 72
0.428611 0.0314153 1.87458 142 151 114
0.289692 0.0631726 1.87959 152 138 83
0.421417 0.0749486 1.90122 70 50 35
0.387209 0.0779182 1.81253 29 14 8
0.42106 0.0813042 1.83341 118 88 82
0.36719 0.091108 1.77158 132 128 108
0.422841 0.0994822 1.88065 37 16 9
0.374519 0.105618 1.83235 32 3 0
0.418768 0.117361 1.90185 77 46 30
0.375489 0.0344122 1.87147 155 160 109
0.417829 0.071589 1.84731 34 12 4
0.4249 0.0722388 1.88913 64 42 30
0.384187 0.078886 1.81826 20 9 4
0.415935 0.0734975 1.83997 80 54 40
0.415158 0.0775199 1.8194 118 98 83
0.37145 0.0903359 1.76543 154 149 130
0.362975 0.109837 1.84069 22 7 4
0.376639 0.105355 1.82996 33 6 2
0.370833 0.108512 1.83215 30 7 2
0.424245 0.0908476 1.8845 44 24 11
0.420712 0.100122 1.89155 39 16 9
0.332514 -0.023033 1.87489 92 96 63
0.333816 0.0220871 1.84064 70 74 48
0.379403 0.0424985 1.91918 159 131 90
0.430007 0.0579722 1.85381 48 22 8
0.428983 0.0614827 1.85 72 43 24
0.355745 0.0976768 1.83746 121 86 77
0.41864 0.0883117 1.84607 27 6 4
0.417607 0.0894101 1.84378 28 7 4
0.422267 0.0982788 1.89024 83 65 54
0.407263 0.136746 1.87347 61 28 26
0.406504 0.142876 1.87943 65 50 46
0.403254 0.144586 1.87704 72 47 44
0.365834 0.0414565 1.82526 68 70 36
0.262515 0.0813137 1.95202 135 118 94
0.0664943 0.141053 2.29063 62 56 39
0.428061 0.0783259 1.84964 114 86 76
0.417141 0.0894031 1.84475 32 10 6
0.384693 0.103742 1.82967 112 85 78
0.368099 0.140961 1.86397 111 76 69
0.37907 0.00379443 1.8769 94 98 58
0.280581 0.0374902 1.8733 150 142 85
0.423935 0.0786065 1.8476 104 72 65
0.427513 0.0784754 1.85121 115 86 77
0.380379 0.00411814 1.87392 84 88 50
0.422495 0.0793751 1.844 36 11 5
0.397942 0.0473155 1.89915 30 13 4
0.364389 0.149176 1.87102 90 60 55
0.412985 0.0383043 1.89034 144 156 114
0.399255 0.0932319 1.83094 24 4 1
0.345701 0.107217 1.84919 156 135 114
0.42286 0.0954841 1.86346 36 14 10
0.296926 -0.0102106 1.82857 87 88 66
0.312235 -0.000496435 1.83889 98 96 50
0.348667 0.0320009 1.83984 73 77 48
0.362626 0.0430027 1.82373 99 102 64
0.41949 0.0750612 1.83963 74 46 24
0.345014 0.0911464 1.83923 66 32 12
0.415662 0.100554 1.85092 126 104 99
0.400474 0.125537 1.85001 129 102 99
0.404964 0.142975 1.87347 62 36 34
0.431444 0.0294571 1.73997 114 118 81
0.278029 0.0386034 1.87393 97 74 28
0.395133 0.03598 1.80429 88 92 82
0.427933 0.0701922 1.85618 68 41 27
0.342246 0.0924536 1.84298 139 112 94
0.426856 0.0775918 1.85149 96 66 56
0.401096 0.0927542 1.82959 26 4 0
0.383216 0.111363 1.83521 54 18 8
0.370951 0.0241227 1.78811 148 147 104
0.380828 0.0270424 1.77568 137 137 90
0.341333 0.0232549 1.84601 85 86 56
0.349208 0.0406518 1.83001 98 96 48
0.424321 0.0683511 1.84596 110 66 42
0.407981 0.0854703 1.81537 84 56 42
0.415302 0.0950753 1.84889 26 4 2
0.342443 0.115086 1.8617 150 130 106
0.381964 0.150855 1.86711 104 62 46
0.404115 0.0919566 1.82858 21 8 4
0.402293 0.103248 1.83433 106 91 87
0.400402 0.110718 1.84215 119 98 92
0.379705 0.149562 1.86607 98 49 30
0.312793 9.55793e-05 1.83685 60 64 28
0.342927 0.0177746 1.83066 140 140 95
0.368595 0.0244339 1.79479 137 139 93
0.349028 0.0344706 1.8468 74 72 46
0.426217 0.0514898 1.85021 57 36 16
0.352027 0.0923558 1.83809 120 86 70
0.402312 0.0984824 1.83527 28 12 7
0.399471 0.104889 1.83662 40 16 11
0.46789 0.0709078 1.66637 41 19 12
0.328297 0.00313457 1.81099 72 78 34
0.352518 0.041896 1.82995 150 148 98
0.424274 0.0765176 1.84646 58 30 20
0.40544 0.0815673 1.81609 114 82 63
0.343063 0.111389 1.85613 130 104 82
0.335128 0.0037169 1.79697 98 100 58
0.312897 0.0406059 1.86217 150 142 86
0.361056 0.0440066 1.82078 147 145 102
0.374643 0.0652821 1.85509 79 78 67
0.342962 0.111234 1.85623 142 118 95
0.286755 0.0340223 1.86815 75 64 28
0.356703 0.0447703 1.82243 37 39 17
0.339587 0.125651 1.87561 144 130 110
0.348102 0.134031 1.87359 140 116 96
0.33745 -0.0248696 1.87719 110 116 70
0.416862 0.0163823 1.7429 118 114 74
0.413527 0.0159871 1.74935 147 144 104
0.411286 0.016525 1.75348 150 147 108
0.408459 0.0164476 1.75826 94 90 54
0.408681 0.0175465 1.75767 152 150 112
0.407076 0.0186627 1.75982 116 112 73
0.404637 0.0189139 1.76411 143 142 109
0.400704 0.0195348 1.76969 102 104 74
0.379764 0.0106232 1.8725 98 103 60
0.401844 0.0279573 1.79018 89 99 89
0.397785 0.0309545 1.80136 88 98 82
0.395526 0.0340206 1.80306 89 96 86
0.35374 0.0346076 1.84542 70 74 42
0.393031 0.0356646 1.80343 89 95 82
0.317816 0.0460985 1.86368 114 99 59
0.327467 0.0667513 1.8341 126 90 67
0.418529 0.106281 1.86573 84 52 47
0.382957 0.111774 1.8364 52 17 8
0.385147 0.145064 1.86312 55 14 8
0.329145 -0.0099783 1.87955 100 104 60
0.413505 0.0173783 1.74897 124 121 82
0.408627 0.0165058 1.75763 100 98 59
0.404215 0.0186768 1.76477 134 134 98
0.401672 0.0257911 1.78279 90 92 86
0.379633 0.0148799 1.8719 115 122 74
0.377787 0.0190097 1.87552 86 94 52
0.30142 0.0314762 1.86755 108 108 54
0.392829 0.0354056 1.80385 84 89 76
0.0872547 0.129277 2.27237 140 124 115
0.430323 0.0737362 1.84803 128 108 98
0.361097 0.0925651 1.76813 120 113 90
0.423228 0.0935881 1.88465 52 27 14
0.363751 0.118906 1.84689 118 86 76
0.401421 0.114931 1.84465 53 24 20
0.347287 0.133697 1.87574 138 111 93
0.337435 -0.0249063 1.87691 99 106 62
0.414103 0.0177143 1.7472 148 147 100
0.408695 0.0173915 1.75784 130 126 93
0.378786 0.0194195 1.87292 106 114 71
0.36416 0.0391455 1.84278 60 63 23
0.0710515 0.13252 2.30024 138 124 116
0.361077 0.0871693 1.7742 130 122 96
0.382025 0.0888489 1.81547 166 120 98
0.297504 -0.00631993 1.82385 88 88 66
0.338717 -0.0156904 1.86827 97 106 72
0.404823 0.0186618 1.76345 134 134 98
0.377159 0.0187244 1.87689 112 120 76
0.368242 0.0399075 1.83384 50 58 18
0.357144 0.0662969 1.80103 147 140 104
0.367894 0.108194 1.83166 24 5 2
0.403834 0.0166627 1.76469 152 156 106
0.34679 0.0281885 1.84977 86 86 54
0.302951 -0.00738731 1.83156 92 88 54
0.404195 0.0185162 1.76448 136 136 100
0.368256 0.0396356 1.83264 47 56 16
0.397365 0.12858 1.85739 92 64 62
0.355854 0.110791 1.8394 114 87 66
0.443345 -0.00905719 1.83323 98 102 61
0.422038 0.012768 1.83319 69 74 51
0.420545 0.0177233 1.83471 74 79 62
0.409846 0.0248438 1.83806 78 84 62
0.377494 0.0424652 1.90793 170 158 126
0.413642 0.0459394 1.86758 106 93 67
0.435648 0.0483552 1.84916 98 66 50
0.317258 0.0989809 2.3092 122 100 90
0.423911 0.0794758 1.85479 70 40 30
0.362137 0.0890377 1.77988 99 100 76
0.425539 0.0828663 1.85566 34 14 8
0.400887 0.0994537 1.83843 32 12 8
0.339359 -0.0240751 1.87359 120 124 78
0.455939 -0.0146686 1.8293 74 78 40
0.44435 -0.00841036 1.83012 121 124 87
0.443345 -0.00905719 1.83323 98 102 61
0.441284 -0.00173059 1.82732 82 86 60
0.425565 0.0075736 1.83657 70 80 54
0.421454 0.0471979 1.87413 140 138 108
0.422099 0.0127187 1.83313 69 74 51
0.399442 0.0336947 1.84511 76 80 67
0.354464 0.00493199 2.22465 111 120 80
0.421668 0.083469 1.80925 84 65 48
0.335844 0.114595 1.88607 40 10 3
0.426156 0.00856364 1.83295 74 82 56
0.406078 0.0294489 1.83822 92 96 82
0.420076 0.0466406 1.88243 148 148 118
0.422684 0.0897719 1.86251 80 62 56
0.461559 -0.0206555 1.83073 158 163 116
0.440344 0.0116969 1.79103 78 80 56
0.420369 0.0468538 1.87908 136 136 104
0.374457 0.0033648 1.85821 121 124 96
0.36195 0.0952259 1.77813 156 146 128
0.379878 0.0433324 1.90469 160 150 102
0.424575 0.0748603 1.83929 152 117 102
0.365976 0.0583677 1.81692 66 70 48
0.23588 0.0802245 1.88516 157 146 120
0.458674 -0.013281 1.821 116 119 78
0.453435 -0.0122999 1.82704 110 112 72
0.376709 0.0185424 1.87775 92 96 56
0.293484 0.030459 1.87129 114 111 57
0.406577 0.0289243 1.83752 71 75 60
0.40656 0.0298768 1.83604 82 85 70
0.402093 0.0348915 1.83692 76 80 63
0.432495 0.0337046 1.87451 76 64 34
0.385239 0.0417596 1.87348 154 154 120
0.373773 0.0404889 1.91996 96 70 32
0.423337 0.0380746 1.86767 104 114 70
0.378958 0.0433982 1.88535 78 69 55
0.410801 0.0381055 1.89312 156 152 116
0.376222 0.0429091 1.90724 109 90 76
0.336972 0.05978 1.85833 134 126 76
0.325451 0.0683435 1.83834 123 93 71
0.432683 0.0535484 1.84546 116 81 69
0.43316 0.055925 1.84616 72 44 26
0.429157 0.0656961 1.8498 72 48 31
0.35096 0.0878289 1.82554 132 95 75
0.428061 0.0735128 1.85859 116 100 94
0.426904 0.0764907 1.87824 28 12 4
0.424143 0.0780855 1.88842 34 16 6
0.425996 0.0768888 1.86048 62 42 36
0.426749 0.0766201 1.84296 80 48 36
0.427395 0.0777474 1.85006 90 60 52
0.366511 0.0884212 1.77532 98 108 88
0.414295 0.101644 1.85174 34 8 4
0.38447 0.110894 1.83511 116 88 80
0.419381 0.113245 1.88299 112 89 83
0.402288 0.145227 1.87749 84 62 61
0.329515 -0.0243651 1.87926 87 92 59
0.393575 0.0395288 1.84569 79 84 65
0.411775 0.0384153 1.89223 144 137 103
0.374848 0.0426457 1.91335 60 42 23
0.399791 0.0399046 1.91433 137 136 98
0.427542 0.0736673 1.85971 117 100 96
0.345632 0.0911186 1.83644 142 108 84
0.426115 0.0768045 1.88046 26 11 4
0.382378 0.0840748 1.82063 59 24 12
0.416901 0.0988177 1.84796 113 92 88
0.365579 0.118418 1.84422 114 78 66
0.414616 0.113615 1.85693 82 51 47
0.397562 0.138681 1.86305 108 86 82
0.403947 0.143787 1.87255 102 80 80
0.426814 0.00900427 1.82978 70 78 56
0.41054 0.0250519 1.83524 70 76 56
0.363793 0.0460283 1.81338 37 37 10
0.375148 0.0428984 1.91021 102 85 70
0.428936 0.0702032 1.85233 96 71 59
0.427029 0.0747033 1.85833 28 11 10
0.361361 0.0872697 1.77279 124 116 97
0.420471 0.0816567 1.83504 134 100 94
0.363189 0.0907796 1.77729 139 140 118
0.363773 0.09564 1.82598 80 50 42
0.384328 0.13614 1.85499 110 80 74
0.408302 0.136367 1.87293 117 92 92
0.383258 0.0432784 1.84387 154 158 112
0.375956 0.0420211 1.91589 161 152 110
0.354002 0.052275 1.83969 30 29 8
0.318603 0.0693267 1.84718 129 97 74
0.332607 0.0749833 1.85263 154 138 116
0.376266 0.0779329 1.82317 18 9 5
0.382278 0.0800121 1.82127 20 8 0
0.430474 0.0731271 1.85135 93 78 72
0.339876 0.0934383 1.84165 106 80 62
0.417959 0.0941174 1.90627 26 11 0
0.360548 0.121282 1.85292 118 88 78
0.400187 0.116013 1.84508 118 100 95
0.413464 0.136906 1.87689 70 46 46
0.405922 0.142391 1.87487 56 32 27
0.387294 0.146993 1.86426 117 70 56
0.409832 0.0248212 1.83655 65 71 52
0.372673 0.0412642 1.92256 152 144 108
0.344169 0.0585137 1.82362 143 139 88
0.421711 0.0592683 1.87439 78 59 52
0.424905 0.0653639 1.85219 114 76 62
0.359656 0.0791193 1.81477 84 60 38
0.340338 0.0932928 1.84082 134 112 92
0.417106 0.080957 1.81659 128 103 88
0.36412 0.116083 1.84564 42 8 2
0.352432 0.12105 1.85666 148 124 107
0.366331 0.11282 1.75179 136 124 106
0.383027 0.150068 1.86404 106 60 42
0.410555 -0.0572173 1.88881 64 77 36
0.373463 0.0418632 1.92265 160 153 112
0.345809 0.0584276 1.82156 143 139 86
0.35348 0.0579 1.83143 144 141 87
0.332491 0.0686245 1.85781 135 119 100
0.421099 0.0613284 1.87479 14 5 2
0.419714 0.0753454 1.88473 58 36 26
0.426598 0.07842 1.85236 111 82 74
0.423505 0.0916086 1.8864 28 10 3
0.412849 0.139195 1.89014 76 48 40
0.375315 0.0418061 1.90594 77 58 38
0.424392 0.0445073 1.86973 106 98 65
0.348796 0.0666931 1.83495 121 104 85
0.372689 0.144127 1.85696 98 68 63
0.384133 -0.0100446 1.87314 124 130 87
0.323817 0.0599249 1.83341 152 136 84
0.34838 0.0615575 1.81144 35 37 19
0.42497 0.0555922 1.87311 62 31 12
0.381804 0.0791186 1.82247 16 9 4
0.421651 0.0783045 1.89278 40 24 15
0.418472 0.079193 1.87105 127 94 82
0.419339 0.0801812 1.84998 58 38 30
0.385606 0.147646 1.85881 102 57 42
0.42168 0.0127813 1.83332 68 72 48
0.388909 0.0217937 1.87109 145 148 114
0.435474 0.0546007 1.84202 74 42 19
0.36951 0.0769473 1.7853 140 132 108
0.351712 0.0861551 1.8237 99 54 28
0.424587 0.0761193 1.88936 138 126 114
0.408559 0.0860582 1.81352 56 24 10
0.382515 0.104929 1.83341 116 88 81
0.366459 0.112519 1.75253 90 80 56
0.412386 0.137217 1.89549 102 76 69
0.407026 0.13815 1.87382 58 28 26
0.388683 0.142549 1.85603 52 14 7
0.409379 0.0249112 1.83771 74 78 58
0.431983 0.056019 1.84899 85 54 34
0.367462 0.0819124 1.77703 99 104 79
0.34985 0.0882315 1.82702 135 98 75
0.368682 0.0871146 1.76871 98 100 76
0.402877 0.0915389 1.8278 108 83 77
0.366717 0.100449 1.8285 104 60 46
0.400858 0.104449 1.83754 108 88 82
0.411794 0.137594 1.89671 106 82 74
0.407411 0.0185615 1.781 104 108 75
0.403075 0.0196125 1.79106 93 102 64
0.423199 0.0132263 1.82961 65 70 44
0.403343 0.0223431 1.79423 110 114 76
0.400303 0.027658 1.78627 90 92 83
0.375317 0.0406241 1.91651 104 81 44
0.354268 0.0584114 1.83797 96 86 48
0.354331 0.06219 1.80686 64 66 39
0.430893 0.0558147 1.85287 100 69 49
0.359106 0.0812175 1.82594 104 78 62
0.370521 0.0795042 1.79197 144 124 98
0.365991 0.087719 1.77168 102 105 82
0.400465 0.115803 1.84452 120 102 98
0.367511 0.112482 1.74996 116 104 86
0.398272 0.021129 1.80268 98 106 74
0.397137 0.0395499 1.92051 158 162 120
0.34125 0.0586554 1.82164 144 137 82
0.423786 0.0562112 1.87873 40 8 0
0.368181 0.077521 1.78158 108 108 80
0.42598 0.0765074 1.8614 22 8 2
0.364835 0.0904828 1.77546 138 136 114
0.364658 0.0946695 1.82774 124 76 62
0.381437 0.151783 1.86943 100 58 41
0.371638 0.0700326 1.79077 122 113 72
0.42521 0.0616056 1.86304 12 6 2
0.370988 0.078336 1.79462 130 96 64
0.424463 0.074415 1.84347 152 114 103
0.420205 0.0799955 1.83867 154 131 125
0.368644 0.0897671 1.7706 137 132 110
0.36783 0.0917518 1.76318 112 111 90
0.366226 0.111999 1.75469 76 69 40
0.365684 0.0774694 1.78929 86 88 63
0.362377 0.0812008 1.7774 122 113 88
0.369337 0.0914518 1.7616 112 112 92
0.423535 0.0563164 1.87825 49 18 6
0.380354 0.0894712 1.81427 158 108 78
0.370049 0.0921872 1.76659 160 146 126
0.386416 0.0186232 1.87705 141 148 104
0.365894 0.111531 1.75513 124 116 93
0.375127 0.1098 1.74242 104 93 70
0.463046 -0.0182669 1.82162 116 122 79
0.377251 0.00932964 1.87822 98 103 61
0.0656819 0.134692 2.18174 156 144 121
0.419125 0.0176156 1.82953 70 75 53
0.428893 0.0316301 1.87321 146 154 114
0.362589 0.11434 1.757 92 80 58
0.410909 0.125738 1.86484 118 94 90
0.408757 0.128958 1.87421 86 63 60
0.425295 0.0450803 1.86757 140 134 104
0.400402 -0.041003 1.8759 118 130 86
0.465348 -0.0190672 1.82217 70 79 48
0.462378 -0.0181085 1.82207 144 144 106
0.396404 0.0220954 1.77505 107 101 58
0.404116 0.0247503 1.78612 89 95 83
0.382704 0.0342444 1.86255 64 64 28
0.372643 0.0417084 1.92181 164 155 120
0.358859 0.0616267 1.82534 62 62 47
0.424355 0.0568005 1.87794 40 10 0
0.424951 0.0586033 1.87581 62 30 6
0.374196 0.0694171 1.80483 51 46 37
0.424621 0.0595252 1.87277 114 87 60
0.426175 0.0653996 1.84874 96 58 42
0.365073 0.0789764 1.78874 104 112 86
0.345883 0.0898363 1.83458 62 26 7
0.426073 0.0790011 1.85546 94 67 58
0.420605 0.0810807 1.83396 118 84 77
0.365801 0.0921503 1.76567 108 108 88
0.42515 0.0887971 1.89225 62 59 43
0.421208 0.095524 1.87354 36 14 8
0.419801 0.121105 1.88214 122 98 94
0.418974 0.131417 1.88415 118 92 85
0.386775 0.136461 1.85225 56 20 14
0.412909 0.140211 1.88612 96 75 68
0.405045 0.14205 1.87381 122 101 98
0.465474 -0.0190015 1.82147 67 76 46
0.4536 -0.0121143 1.82596 111 114 69
0.397145 -0.0145221 1.85876 111 118 73
0.3991 0.0217112 1.77168 139 134 96
0.39878 0.021161 1.80195 106 112 79
0.402554 0.024395 1.78849 91 96 84
0.371399 0.0416228 1.91527 76 58 36
0.371785 0.0701186 1.78469 96 99 68
0.427967 0.0658352 1.8531 71 48 30
0.427859 0.0746924 1.8609 92 80 74
0.371285 0.0853981 1.77398 48 59 41
0.366373 0.0887308 1.7747 94 98 78
0.42413 0.0828676 1.88787 115 96 88
0.365742 0.0931951 1.76488 110 109 91
0.41985 0.120902 1.88167 122 98 94
0.412591 0.125706 1.86154 124 103 99
0.453496 -0.0133372 1.8293 142 144 105
0.301933 -0.00188803 1.82781 75 74 50
0.395226 -0.0151577 1.86257 114 120 78
0.38133 0.0105645 1.8704 100 102 61
0.417999 0.0169697 1.83288 84 88 66
0.393805 0.0364911 1.84016 107 106 67
0.372294 0.0423048 1.91609 106 93 79
0.42867 0.0556572 1.84465 178 131 112
0.341694 0.0929553 1.83929 103 77 54
0.422447 0.0788783 1.84972 92 61 52
0.371821 0.087429 1.76884 106 112 92
0.398981 -0.0430543 1.87998 142 151 106
0.394087 -0.0155676 1.86475 119 124 82
0.441047 -0.00250753 1.82905 89 88 68
0.424288 0.0554627 1.87544 64 32 9
0.423333 0.0695936 1.84561 108 68 42
0.421726 0.0753551 1.87931 91 78 70
0.365204 0.0931492 1.76532 106 105 86
0.417721 0.121379 1.90279 102 83 69
0.416694 0.1238 1.90192 48 18 6
0.412438 0.125128 1.86143 118 99 95
0.369067 0.139917 1.86195 124 87 81
0.414961 0.136218 1.89033 58 34 27
0.401569 0.023578 1.79991 155 156 110
0.422457 0.0557756 1.87996 72 41 16
0.362252 0.0812525 1.77756 118 111 85
0.426484 0.0713832 1.88065 52 27 16
0.360149 0.087449 1.774 118 112 90
0.35911 0.0930307 1.76906 134 123 104
0.373226 0.106121 1.83449 34 4 0
0.395854 -0.012711 1.85799 100 109 67
0.428173 0.060889 1.86514 92 64 39
0.352715 0.0827484 1.8306 28 13 5
0.366387 0.115285 1.84247 33 6 2
0.36517 0.112957 1.75359 100 88 67
0.388184 -0.017958 1.87434 78 90 46
0.399477 0.0223263 1.80323 154 154 102
0.340919 0.058393 1.82245 148 140 82
0.415015 0.0795002 1.88821 78 54 46
0.392446 0.149774 1.86732 106 72 61
0.457732 -0.0142232 1.82405 112 112 71
0.461674 -0.0138535 1.82319 46 52 30
0.428899 0.00986835 1.83196 68 75 59
0.430735 0.032443 1.86896 140 139 106
0.430038 0.0643304 1.84684 98 71 49
0.335677 0.0861494 1.83766 162 150 128
0.420168 0.0888317 1.88253 77 60 52
0.42156 0.0889809 1.87519 76 58 52
0.426928 0.00920619 1.82922 76 84 60
0.429231 0.00984874 1.83129 62 68 51
0.429327 0.0578606 1.87451 106 82 54
0.347974 0.091881 1.83579 104 66 51
0.423756 0.0871415 1.87281 42 19 10
0.422405 0.0889009 1.87011 84 66 59
0.419925 0.0997577 1.89495 52 30 22
0.383687 0.0674023 1.77838 122 102 75
0.431949 0.0205798 1.8015 61 64 40
0.350588 0.0882593 1.8254 152 116 95
0.419918 0.106158 1.90332 86 60 38
0.34762 0.0813283 1.82851 116 84 52
0.328492 0.0885919 1.84698 162 148 126
0.459788 0.0523688 1.67567 156 153 120
0.342571 0.0838834 1.82971 133 110 84
0.418871 0.0718561 1.83984 41 18 9
0.369305 0.100194 1.99883 115 98 78
0.392827 0.0357006 1.80369 85 90 76
0.306121 0.0320795 1.87002 106 105 52
0.409914 0.0405398 1.89159 41 38 10
0.350131 0.0621591 1.80142 74 72 50
0.36652 0.054824 1.84913 40 32 14
0.334375 0.0695009 1.85792 89 72 50
0.384853 0.0757183 1.82161 22 10 7
0.409554 0.071953 1.82679 12 14 4
0.342811 0.0902477 1.83721 76 43 18
0.341948 0.0914757 1.84162 164 136 122
0.412561 0.0830241 1.80505 119 99 79
0.409986 0.0848753 1.81339 103 88 69
0.364112 0.119656 1.84911 48 13 4
0.401564 0.11514 1.84191 126 107 102
0.383759 0.126429 1.84821 122 93 87
0.367476 0.139847 1.86385 132 100 89
0.385695 0.133484 1.85085 130 96 88
0.383939 0.137602 1.85422 56 17 10
0.408645 0.135714 1.87193 128 100 99
0.396184 0.147293 1.87448 102 68 64
0.289153 -0.0663396 1.93082 82 86 42
0.457491 -0.0134681 1.82419 150 149 110
0.410068 0.0175067 1.77404 109 113 76
0.393099 0.0398054 1.81087 81 91 76
0.397632 0.0332413 1.84769 74 79 64
0.401533 0.0404364 1.9088 146 151 109
0.349307 0.0621616 1.80206 78 76 52
0.340246 0.0959707 1.84609 108 81 64
0.360248 0.101696 1.834 98 59 52
0.419164 0.0191863 1.74786 56 60 48
0.403491 0.028002 1.84452 78 80 64
0.393049 0.0397643 1.81079 82 92 76
0.345171 0.0467645 1.86186 135 134 86
0.401244 0.047666 1.88947 30 14 0
0.383312 0.0759824 1.82395 25 14 10
0.342625 0.0926763 1.83777 96 72 50
0.411689 0.085631 1.80539 80 46 38
0.360141 0.101861 1.83443 110 72 65
0.366844 0.114552 1.83999 34 5 0
0.369898 0.111183 1.7497 90 80 54
0.362087 0.0544256 1.85757 44 38 20
0.425877 0.0666858 1.89067 80 70 42
0.42927 0.071577 1.87399 62 40 26
0.376951 0.10486 1.82776 38 6 0
0.433438 0.0970117 1.79227 102 88 48
0.427247 0.100842 1.79725 42 14 8
0.361892 0.113013 1.74589 80 76 54
0.463192 -0.0149005 1.8149 113 118 75
0.411561 0.0182805 1.77106 107 112 76
0.489592 0.0559441 1.63748 118 118 74
0.42622 0.0446975 1.88844 98 66 56
0.430474 0.0646298 1.86775 64 46 28
0.438484 0.0965409 1.79331 73 47 41
0.421893 0.102921 1.80891 40 17 10
0.320897 0.05612 1.84725 152 144 84
0.371411 0.0551337 1.83897 80 73 52
0.367473 0.0575082 1.8523 34 26 10
0.425323 0.0695398 1.88783 120 120 99
0.426096 0.0983136 1.86667 40 22 14
0.407765 0.139445 1.87475 122 104 102
0.419461 0.0424265 1.91204 128 96 84
0.378825 0.0662224 1.87738 22 16 8
0.422174 0.0695499 1.85003 108 68 40
0.419221 0.0805468 1.81237 124 108 92
0.423759 0.0920416 1.82523 48 27 24
0.397192 0.105531 1.83921 48 20 16
0.368198 0.112208 1.74996 134 122 103
0.466056 0.0620821 1.67062 117 116 80
0.341859 0.0235102 1.8463 82 84 52
0.439213 0.0207639 1.86732 74 71 32
0.320448 0.0587274 1.83883 156 138 94
0.359061 0.102206 1.83724 81 44 33
0.440045 0.0232189 1.86711 88 87 51
0.320927 0.0456792 1.85207 67 47 27
0.318402 0.0575771 1.8398 150 143 84
0.462009 -0.0166397 1.8207 107 113 71
0.456135 -0.0142794 1.82787 86 90 49
0.45495 -0.0118952 1.82457 154 156 110
0.335998 -0.0111125 1.86434 117 118 70
0.340244 -0.00525205 1.86 116 122 78
0.348666 0.0285207 1.84541 80 85 52
0.295474 0.0327912 1.86119 112 108 54
0.382885 0.0429879 1.84382 153 158 122
0.429022 0.0325648 1.87141 114 120 79
0.400055 0.0450526 1.89892 122 108 90
0.401104 0.0847675 1.82618 52 16 4
0.361011 0.108623 1.84037 114 88 81
0.353437 0.132167 1.86758 52 12 6
0.398798 0.119707 1.84777 44 12 6
0.383491 0.126964 1.84944 120 93 88
0.410269 0.126107 1.86742 130 107 104
0.409517 0.126548 1.86718 56 27 26
0.384014 0.147453 1.86551 115 84 80
0.397901 0.0298158 1.79654 84 94 80
0.34717 0.0280586 1.84842 83 86 55
0.373748 0.0694792 1.80619 56 56 46
0.403843 0.0871548 1.82168 106 72 65
0.364896 0.114924 1.84259 50 10 4
0.455417 -0.0117658 1.82294 158 162 114
0.422334 0.101962 1.87749 27 12 3
0.409057 0.126783 1.86853 56 26 24
0.409732 0.128128 1.86982 129 107 106
0.456958 -0.0140606 1.82598 156 157 112
0.45717 -0.0126179 1.82215 120 122 78
0.390405 0.0391973 1.81604 84 96 82
0.399673 0.0449228 1.90024 122 108 90
0.398211 0.0993751 1.83787 34 14 10
0.365467 0.115122 1.84243 30 2 0
0.359259 0.0373787 1.84807 42 52 17
0.367391 0.114284 1.83854 38 6 0
0.382358 0.0413238 1.84657 142 146 106
0.338115 0.0663074 1.82663 147 141 83
0.409945 0.139502 1.87922 86 60 57
0.364028 0.121323 1.84934 114 86 82
0.32532 0.0662024 1.83304 150 133 90
0.288896 -0.0168581 1.82691 142 140 100
0.461637 -0.0128043 1.82014 52 58 30
0.444027 -0.0022142 1.82685 64 65 44
0.348152 -0.00129202 1.86047 93 107 64
0.33704 0.0348738 1.84628 84 84 50
0.384991 0.0410673 1.81328 81 86 71
0.364698 0.0434595 1.81847 77 80 44
0.360231 0.0447708 1.82329 79 81 44
0.371303 0.059367 1.79904 123 130 104
0.327269 0.0671611 1.83651 124 86 65
0.322475 0.0671981 1.86354 68 53 16
0.316384 0.0785087 1.76895 98 97 73
0.327127 0.0718979 1.83559 105 67 41
0.374089 0.0695158 1.80525 70 73 60
0.368963 0.0830678 1.77451 104 106 81
0.356768 0.103185 1.84555 83 50 42
0.355889 0.115672 1.75122 90 82 64
0.365478 0.12923 1.85567 138 103 94
0.410136 0.127752 1.86674 121 98 94
0.353251 0.144475 1.88194 81 40 24
0.383176 0.149486 1.86898 86 51 42
0.326452 -0.0376582 1.88609 132 136 94
0.347965 -0.00143553 1.86037 78 92 48
0.403476 0.0408109 1.90643 136 142 104
0.32263 0.0645896 1.86644 138 132 100
0.316405 0.0784833 1.7689 98 97 73
0.326572 0.0715381 1.8369 98 57 34
0.32631 0.0776859 1.83967 154 134 106
0.352859 0.143053 1.88093 115 76 60
0.463076 -0.0180007 1.82089 120 126 82
0.344492 0.0236869 1.84972 100 108 66
0.371475 0.0593397 1.79824 122 128 100
0.323109 0.064891 1.86514 148 140 104
0.327465 0.0776384 1.83686 154 140 106
0.353832 0.0831025 1.79298 119 98 72
0.369272 0.0827725 1.77375 100 101 77
0.355676 0.101772 1.83591 34 8 4
0.360992 0.103902 1.83776 22 6 3
0.363408 0.115755 1.84681 33 2 0
0.384213 0.146676 1.86454 117 92 84
0.330237 0.0126114 1.84359 102 108 64
0.321039 0.0509276 1.84639 79 54 32
0.417422 0.0526834 1.86638 102 94 69
0.433213 0.0521047 1.85001 130 93 79
0.33066 0.0720324 1.84409 140 118 76
