ply
format ascii 1.0
element vertex 1271
property float x
property float y
property float z
property uchar red
property uchar green
property uchar blue
end_header
0.215111 -0.0566671 1.2794 156 130 116
0.460317 -0.065289 1.30468 197 180 172
-0.144248 -0.0196901 1.25864 138 90 72
0.261888 -0.0811909 1.18362 131 96 92
0.201878 -0.057481 1.22403 91 68 62
-0.231368 -0.166683 0.833827 29 26 38
0.39711 -0.0729289 1.22428 162 126 122
-0.297348 -0.0210686 1.17856 168 120 92
-0.27541 -0.0206389 1.17834 190 138 108
0.202356 -0.0566319 1.19478 114 93 86
0.417468 -0.069743 1.20629 142 78 78
0.310255 -0.0701912 1.17663 198 180 174
-0.284443 -0.163463 0.797214 140 50 29
0.325721 -0.0787041 1.15663 53 40 34
0.38272 -0.0621133 1.20823 186 168 162
0.396684 -0.0603192 1.21615 76 62 57
0.33331 -0.0714858 1.16836 74 64 64
0.402994 -0.0702132 1.19304 84 70 66
0.317996 -0.075355 1.152 58 46 40
-0.204981 -0.126721 0.893535 44 21 30
0.403527 -0.0367643 1.23492 42 26 22
0.409696 -0.0383869 1.22189 168 152 149
-0.249867 -0.116803 0.825299 43 26 34
0.420423 0.0113118 1.25902 140 64 58
0.241702 0.0375673 1.26233 52 22 15
0.285186 0.00831073 1.18871 190 162 160
-0.283598 -0.067919 0.882184 69 2 3
-0.306064 -0.0800172 0.846487 163 84 78
-0.237423 -0.0921325 0.833199 120 22 12
-0.250267 -0.085095 0.841165 145 86 50
0.334232 0.0454574 1.23472 64 34 32
-0.23655 -0.027441 0.950131 149 115 105
0.272826 0.0388881 1.19075 102 70 62
-0.24085 -0.0172432 0.938336 146 74 38
-0.316615 -0.022284 0.875242 142 60 28
0.554595 -0.679157 1.65119 96 69 30
0.571395 -0.612046 1.47748 137 114 97
0.61297 -0.597666 1.41583 148 125 102
0.612045 -0.58236 1.43335 144 102 80
0.54051 -0.567702 1.65341 130 79 46
0.543957 -0.555227 1.60285 164 156 114
0.67736 -0.547519 1.40874 142 107 94
0.548413 -0.528908 1.53748 88 71 39
0.0221751 -0.525555 1.37634 180 118 98
0.600395 -0.525487 1.46639 72 56 48
0.014101 -0.517252 1.37506 88 34 17
0.65166 -0.507346 1.42624 123 64 58
-0.188868 -0.503399 1.19688 56 16 4
0.613657 -0.502247 1.43374 138 111 95
-0.217911 -0.47409 1.14353 166 112 98
0.587426 -0.429657 1.67412 120 95 54
-0.0172397 -0.436186 1.3953 76 30 8
0.618875 -0.40913 1.60816 78 46 20
0.691545 -0.410105 1.57516 112 92 78
0.720222 -0.420804 1.46485 150 100 91
0.0733824 -0.397878 1.43217 76 30 13
0.691021 -0.393792 1.56506 104 87 72
0.730129 -0.399497 1.51839 140 60 46
-0.172863 -0.393845 1.25331 96 56 26
0.681738 -0.379496 1.55697 105 85 72
0.705209 -0.373306 1.6149 64 56 41
0.728956 -0.385996 1.5083 152 58 43
0.6746 -0.374008 1.57231 62 48 28
0.566894 -0.362938 1.51554 183 150 136
0.722507 -0.365768 1.45787 129 46 28
0.605504 -0.331412 1.59852 142 96 76
-0.264497 -0.357536 1.14316 114 66 53
0.129827 -0.331181 1.41872 90 64 42
0.712053 -0.330701 1.52171 66 43 32
0.620637 -0.304649 1.65141 22 16 6
0.648849 -0.29259 1.74087 59 68 46
0.580353 -0.308238 1.57837 50 20 12
-0.0174487 -0.343146 1.17023 109 78 46
0.0132295 -0.326302 1.28692 70 26 5
-0.207528 -0.389772 0.825513 55 50 64
-0.283189 -0.325272 1.18828 98 50 38
-0.320849 -0.32666 1.1539 166 142 121
0.0202204 -0.316872 1.23273 88 46 27
0.670071 -0.238904 1.79087 109 92 68
-0.317371 -0.308428 1.17171 161 106 80
-0.249836 -0.368367 0.822343 157 142 127
0.70182 -0.280353 1.52932 124 70 45
-0.316395 -0.291878 1.16492 92 54 30
-0.297622 -0.286674 1.19485 135 89 77
-0.0335779 -0.307918 1.14421 82 36 20
0.0220455 -0.298196 1.21455 78 27 14
0.542163 -0.236596 1.64205 154 124 101
0.577299 -0.238401 1.5899 148 118 100
0.0106246 -0.284085 1.21029 86 34 22
0.535549 -0.221794 1.63663 122 98 74
-0.00156231 -0.274585 1.22055 146 90 73
0.550011 -0.201536 1.63278 124 96 79
-0.0267578 -0.271848 1.1566 144 98 87
0.729943 -0.224509 1.54227 139 112 96
0.66701 -0.220862 1.51336 76 42 26
-0.0316163 -0.261652 1.14439 109 68 54
0.59282 -0.175611 1.66789 94 56 38
0.656964 -0.1967 1.56105 66 51 44
-0.108183 -0.246386 1.15501 96 48 30
0.733879 -0.206416 1.5277 162 138 126
-0.255278 -0.323002 0.781882 146 39 34
0.514685 -0.160155 1.61958 136 105 90
0.657352 -0.191559 1.53223 12 6 3
0.721568 -0.192998 1.53974 30 10 2
-0.181665 -0.308196 0.831314 162 137 140
0.735549 -0.188117 1.53716 28 20 14
-0.183263 -0.263707 0.982438 111 22 8
0.712784 -0.159366 1.58267 124 94 74
0.76301 -0.166806 1.56697 134 108 90
-0.223375 -0.265413 0.912298 161 138 114
0.716165 -0.119589 1.50148 76 32 16
-0.307239 -0.243159 0.816116 150 98 85
0.65874 -0.084085 1.51013 116 84 72
-0.298623 -0.232371 0.798704 168 140 117
-0.0928992 -0.0475646 1.27307 60 20 11
0.440278 -0.0947833 1.27672 150 110 98
-0.215516 -0.190397 0.846159 126 120 126
-0.205172 -0.18093 0.861282 24 20 38
0.452597 -0.0868152 1.27947 98 80 68
0.225947 -0.0748981 1.23995 103 26 18
0.708729 -0.00406661 1.54219 142 113 108
0.196958 -0.0928037 1.17811 94 76 61
0.214632 -0.0615473 1.26503 154 134 118
-0.269454 -0.0548943 1.15618 174 124 101
0.202943 -0.077857 1.21298 156 136 124
-0.231664 -0.164259 0.859264 120 113 122
0.200536 -0.0808183 1.18054 140 120 115
0.261177 -0.0863407 1.17351 112 86 81
0.453413 -0.0400319 1.33239 78 56 48
0.39748 -0.0753557 1.22123 171 128 125
0.440604 -0.0412995 1.31606 146 128 116
0.222996 -0.0457555 1.24744 152 124 110
0.201506 -0.0437506 1.24048 150 127 117
-0.296115 -0.172744 0.782764 128 82 36
0.381369 -0.0655893 1.20005 154 138 130
0.400475 -0.071164 1.19161 97 84 79
0.416082 -0.0460707 1.25849 140 117 116
0.400885 -0.0620766 1.18126 38 24 18
0.339225 -0.0552609 1.1766 132 114 114
0.366779 -0.0533794 1.18584 136 72 68
-0.219221 -0.12723 0.858854 29 16 33
-0.228127 -0.11987 0.859009 26 18 32
-0.229918 -0.0865124 0.922236 144 76 52
-0.204156 -0.101068 0.8968 131 40 33
-0.255294 -0.0899606 0.846376 70 6 4
-0.236136 -0.085024 0.859179 161 115 106
-0.233838 -0.0457443 0.943753 126 62 36
-0.299958 -0.0837773 0.839043 170 106 98
-0.237701 -0.0400809 0.945644 120 37 19
-0.289491 -0.0271469 0.930602 142 101 94
0.268709 0.0432918 1.1992 105 74 66
-0.255509 -0.00542586 0.957138 146 76 36
0.584694 -0.670238 1.67732 114 101 69
0.535517 -0.61917 1.61584 128 86 39
0.57102 -0.61242 1.48386 136 112 96
0.542306 -0.592003 1.56625 125 86 53
0.647611 -0.568344 1.43545 134 87 66
0.538282 -0.568267 1.62307 129 73 42
0.552594 -0.548125 1.53503 92 80 58
0.604615 -0.538574 1.4807 88 82 67
0.641398 -0.516446 1.42984 100 20 16
0.676537 -0.516663 1.40971 116 12 8
-0.0677527 -0.510883 1.42568 100 91 56
-0.195391 -0.494683 1.19711 52 12 1
-0.0762185 -0.486264 1.47262 48 26 7
-0.200009 -0.465916 1.153 59 16 4
0.0749695 -0.443669 1.41541 118 72 56
-0.214476 -0.452795 1.15626 185 123 103
-0.0140938 -0.439812 1.38597 72 26 7
0.599892 -0.425137 1.57697 147 99 76
0.0805244 -0.406819 1.42092 136 90 72
0.0775598 -0.398386 1.41742 72 28 14
0.587866 -0.387276 1.54732 161 126 106
0.719706 -0.381469 1.53408 85 21 14
0.715304 -0.361907 1.49289 20 8 4
0.0964626 -0.348009 1.39729 146 98 79
0.0285506 -0.354235 1.30806 120 72 48
0.609471 -0.324945 1.62949 141 98 75
0.619081 -0.327156 1.54034 54 68 42
-0.237536 -0.405612 0.799189 90 88 92
0.706121 -0.336151 1.49552 73 47 35
0.566163 -0.321178 1.54397 128 94 73
0.0997167 -0.299696 1.42411 81 60 41
0.631619 -0.270649 1.68788 157 148 128
-0.214065 -0.374509 0.828479 160 145 128
-0.344587 -0.296661 1.19134 96 66 44
0.543512 -0.23576 1.73373 98 76 44
-0.337735 -0.29114 1.18573 118 90 68
0.0116588 -0.284463 1.20085 72 20 9
0.575431 -0.220667 1.62949 36 18 8
-0.28773 -0.332607 0.817939 144 64 52
0.669406 -0.190767 1.60611 32 22 18
0.668942 -0.174697 1.62724 33 20 15
0.739592 -0.194656 1.55962 170 145 136
0.654098 -0.199837 1.50248 10 8 6
0.517067 -0.15857 1.60995 142 119 104
0.724956 -0.188004 1.55281 26 10 2
-0.245986 -0.317735 0.778326 187 156 150
0.738635 -0.185219 1.55167 27 20 14
-0.259146 -0.299679 0.79346 181 152 145
0.486043 -0.108006 1.71532 112 96 71
-0.243483 -0.302594 0.781187 73 30 24
-0.199399 -0.291643 0.833523 160 138 138
-0.198991 -0.277519 0.875774 158 131 107
0.531949 -0.089642 1.60727 123 100 83
-0.296611 -0.251437 0.828495 167 135 122
0.70604 -0.108248 1.50793 158 113 100
-0.305578 -0.239841 0.812221 132 62 50
0.653467 -0.0911093 1.49091 116 84 70
-0.299562 -0.233788 0.80758 137 34 28
-0.101171 -0.0408766 1.28675 59 21 14
0.454862 -0.0605482 1.34107 86 68 56
0.223584 -0.0893336 1.19854 154 134 118
0.698624 -0.0228469 1.49198 150 123 118
-0.230155 -0.161087 0.88848 118 114 125
0.191435 -0.0789931 1.2083 92 72 60
-0.207318 -0.168791 0.859496 26 19 34
0.264153 -0.0951199 1.15723 126 97 95
0.196806 -0.0721897 1.19273 118 98 92
0.396547 -0.0850905 1.19832 148 94 89
0.36654 -0.0857655 1.18225 60 36 24
-0.28306 -0.0296612 1.16003 183 132 101
0.204017 -0.0487938 1.22864 151 129 118
0.412274 -0.0774509 1.204 154 128 124
-0.272896 -0.0237003 1.16969 201 149 118
0.328417 -0.0770273 1.18078 142 129 126
0.195218 -0.0441761 1.22107 114 95 88
-0.281922 -0.163304 0.794845 138 38 26
0.399753 -0.0778894 1.17397 84 70 64
0.292427 -0.05179 1.19515 148 96 88
0.312045 -0.0640784 1.15998 74 62 59
0.409695 -0.0510886 1.19212 152 123 120
-0.266279 -0.0999733 0.853126 36 24 38
0.241553 0.031332 1.24879 87 57 48
0.294878 0.025409 1.22187 156 127 126
0.332561 0.0175751 1.21462 56 22 18
0.34483 0.0164771 1.21574 133 92 91
0.24172 0.0476493 1.25083 102 72 66
-0.259518 -0.0788521 0.851775 145 86 50
-0.264646 -0.0468486 0.906857 78 8 8
0.331442 0.0499343 1.23979 64 34 33
0.587083 -0.671069 1.70643 109 94 64
0.539664 -0.592718 1.54653 130 92 58
0.0684183 -0.55894 1.40877 35 20 9
0.552756 -0.550235 1.52907 83 76 54
0.623063 -0.526102 1.4383 112 84 72
0.0756939 -0.517637 1.37618 125 86 68
-0.0216637 -0.513055 1.38085 58 9 0
0.662144 -0.508315 1.39237 132 86 81
0.6181 -0.501652 1.46432 139 112 99
0.628517 -0.498283 1.46394 90 54 30
0.629275 -0.499248 1.41986 124 84 66
0.00991344 -0.493415 1.32096 88 22 6
-0.258231 -0.494493 1.14266 170 120 90
0.0551812 -0.488149 1.39288 151 96 80
0.608412 -0.459433 1.63037 100 42 17
0.0884473 -0.459748 1.44501 39 14 8
0.114939 -0.452086 1.43825 84 60 32
0.622278 -0.443046 1.63221 118 64 32
0.105728 -0.437162 1.44348 30 10 6
0.684679 -0.415745 1.59064 72 62 42
0.0856152 -0.409857 1.4147 127 82 64
0.696775 -0.398994 1.57889 62 58 42
0.68401 -0.366066 1.63877 90 70 52
0.612726 -0.314523 1.62139 24 12 4
0.0981746 -0.325016 1.39871 28 8 4
0.613008 -0.305863 1.58702 136 124 102
-0.320185 -0.328616 1.14463 159 145 126
-0.156171 -0.315003 1.19479 115 74 49
0.669211 -0.267965 1.66238 94 74 56
0.659549 -0.232645 1.83399 78 64 28
-0.00944828 -0.291598 1.31612 124 77 59
-0.245456 -0.367813 0.815454 159 144 126
-0.110862 -0.309614 1.14052 87 44 20
0.00579224 -0.291376 1.25307 85 32 19
-0.0420262 -0.303457 1.15702 71 26 11
0.59934 -0.18055 1.83557 95 70 55
-0.19593 -0.336888 0.863737 118 31 22
-0.0661145 -0.232505 1.27807 54 14 8
-0.229852 -0.329718 0.790786 180 68 71
-0.114282 -0.244771 1.16117 93 46 28
-0.268813 -0.318648 0.797641 148 44 38
-0.235689 -0.305025 0.779558 186 144 140
-0.193643 -0.295928 0.825998 156 145 144
0.485077 -0.103069 1.72978 115 100 73
-0.26288 -0.294599 0.791196 142 52 40
-0.26565 -0.28653 0.797749 144 36 34
-0.142322 -0.234612 0.992033 134 26 24
-0.287217 -0.258483 0.816478 154 110 97
-0.175496 -0.21519 0.990587 135 24 20
0.518846 -0.0759016 1.63008 84 58 40
-0.214752 -0.192515 0.863526 21 18 30
-0.0724445 -0.0415292 1.325 82 34 18
-0.210444 -0.187991 0.868915 28 22 34
-0.209954 -0.181968 0.866502 24 21 38
-0.221548 -0.186399 0.849487 104 99 108
-0.217725 -0.181634 0.853835 22 18 35
0.229055 -0.0796666 1.23268 118 20 14
-0.21784 -0.170438 0.870911 106 102 114
0.180646 -0.052865 1.26973 90 70 56
0.259213 -0.0843544 1.18393 108 80 76
0.450275 -0.0504854 1.31226 80 59 50
0.334761 -0.0979109 1.14914 157 128 126
0.395756 -0.0784117 1.21278 157 116 110
0.403105 -0.0783536 1.21452 166 115 114
0.307833 -0.0786507 1.16184 170 150 142
0.399918 -0.067622 1.20154 100 88 83
0.385631 -0.0624879 1.19195 102 86 78
0.34005 -0.0618383 1.16663 135 119 116
0.328173 -0.0652389 1.14274 31 16 10
0.407705 -0.0505093 1.19339 131 113 110
-0.245434 -0.114575 0.826183 34 22 36
0.418704 0.0194999 1.27729 150 32 30
-0.241177 -0.0812324 0.864858 160 125 116
0.298377 0.00265008 1.17998 156 130 128
0.292638 0.047698 1.24501 91 70 68
0.625478 -0.657699 1.65263 138 122 84
0.535249 -0.572372 1.61954 154 129 87
0.0118753 -0.547398 1.53767 87 52 33
0.538264 -0.555616 1.57906 164 158 112
0.550414 -0.555093 1.51062 78 74 53
0.0539232 -0.535464 1.43577 101 65 48
0.0747902 -0.521657 1.39093 82 48 32
0.0981658 -0.472819 1.45619 106 96 64
-0.215525 -0.473776 1.14973 174 117 100
0.0981541 -0.466208 1.38098 36 16 11
-0.0220925 -0.444203 1.41293 67 23 6
-0.0609394 -0.363391 1.3138 92 46 26
0.585667 -0.317798 1.60862 156 126 116
0.0915091 -0.322988 1.41671 25 8 4
-0.223456 -0.400989 0.796022 74 72 104
0.584767 -0.293142 1.58843 142 110 94
0.0786257 -0.286352 1.47459 88 48 34
-0.0550939 -0.331899 1.14329 221 170 132
0.657395 -0.284841 1.58654 93 74 56
0.668923 -0.225669 1.86451 80 56 24
-0.0821727 -0.295229 1.16579 178 118 94
0.569156 -0.250289 1.5686 148 117 96
0.0242207 -0.271512 1.30713 100 50 29
-0.292853 -0.268551 1.16689 103 58 37
0.533367 -0.216235 1.60229 18 13 7
0.683381 -0.219879 1.536 164 110 86
-0.189456 -0.321026 0.841816 125 18 16
0.55815 -0.178226 1.61706 128 97 79
-0.190322 -0.281681 0.864479 155 122 98
-0.218355 -0.257712 0.907517 71 6 4
0.561218 -0.1268 1.55931 134 62 39
0.380795 -0.159219 1.33402 159 132 110
0.2179 -0.116001 1.40816 144 94 80
-0.102961 -0.0309217 1.3696 59 17 6
-0.183279 -0.214028 0.814368 22 16 28
-0.222759 -0.190675 0.839093 22 16 31
-0.219901 -0.190582 0.84752 78 70 80
0.204821 -0.0671115 1.25403 154 133 118
0.214342 -0.0672025 1.25587 154 132 117
0.355414 -0.118673 1.15475 76 62 49
0.699006 -0.0219097 1.49506 150 123 118
-0.08299 -0.0311385 1.25297 76 38 27
0.260662 -0.0917196 1.17654 111 82 76
0.45045 -0.0548826 1.30587 77 54 45
0.436268 -0.0584245 1.273 156 115 104
0.324271 -0.0723864 1.16872 57 44 38
0.310595 -0.059073 1.17591 79 68 66
0.408989 -0.0534912 1.21358 126 111 106
0.366567 -0.0553223 1.18782 143 76 72
0.415801 0.00290545 1.24525 152 32 26
-0.209659 -0.503922 1.16145 71 34 17
0.745572 -0.503049 1.40624 116 92 85
-0.273066 -0.498152 1.1304 124 82 59
0.636018 -0.492874 1.43873 142 114 98
0.804276 -0.447282 1.6422 32 12 4
-0.159558 -0.34788 1.45392 108 66 44
0.132282 -0.342016 1.42414 88 72 46
0.767173 -0.334136 1.52283 98 58 42
0.584779 -0.305355 1.57693 51 16 6
-0.0554224 -0.336024 1.15446 223 168 130
0.759561 -0.299205 1.5001 151 128 129
0.791602 -0.282354 1.54115 106 68 53
-0.252624 -0.321323 0.780538 144 48 40
0.342074 -0.162548 1.226 126 76 63
0.308431 -0.147931 1.1711 82 30 24
-0.210392 -0.17084 0.855624 28 25 37
0.324514 -0.0696048 1.17814 92 77 70
0.402264 -0.0665996 1.19614 74 62 58
0.33072 -0.0671162 1.15802 77 62 55
-0.260889 -0.0470266 0.88055 135 75 64
-0.201548 0.0365229 0.881451 120 30 28
0.588205 -0.670924 1.70156 108 96 60
-0.171578 -0.466465 1.19569 100 38 18
-0.0287506 -0.443117 1.41997 72 39 9
0.585024 -0.435248 1.65348 124 99 55
-0.0271195 -0.436724 1.42308 94 48 26
-0.0292272 -0.432401 1.40733 162 114 80
0.62717 -0.375401 1.63572 118 88 62
0.0972394 -0.381538 1.39986 140 93 77
0.630583 -0.360296 1.65328 120 107 76
-0.185149 -0.316126 0.833541 148 89 90
0.729844 -0.199531 1.5458 57 34 23
-0.30438 -0.241728 0.809815 144 83 67
0.301009 -0.152756 1.16439 92 30 26
-0.217155 -0.184704 0.847661 52 48 58
-0.118382 -0.0444915 1.19908 132 84 64
-0.163633 -0.0244339 1.21423 50 16 6
0.345365 -0.0703221 1.18913 157 111 108
-0.238957 -0.121949 0.826195 50 28 38
-0.214166 -0.0952061 0.894113 120 27 9
-0.238551 -0.119124 0.825551 78 57 65
-0.237746 -0.115469 0.823802 51 22 31
-0.259186 -0.0713165 0.87968 160 119 99
-0.195317 0.0428529 0.946619 122 42 39
0.547587 -0.574129 1.51455 106 82 54
-0.207223 -0.514108 1.23474 50 28 6
-0.277034 -0.488329 1.14078 121 80 58
-0.173835 -0.442211 1.22179 158 138 99
0.0720445 -0.415371 1.42827 72 26 14
-0.111294 -0.390001 1.48851 112 72 40
-0.173649 -0.393753 1.25968 96 59 29
0.687165 -0.377336 1.589 111 98 81
0.57161 -0.343772 1.54892 92 60 46
-0.147803 -0.318677 1.19071 130 88 63
-0.112073 -0.3093 1.18888 86 41 20
0.340728 -0.189419 1.22865 95 72 50
0.731204 -0.132965 1.47317 156 112 93
-0.226683 -0.122623 0.872192 34 18 30
-0.210551 -0.103771 0.897208 84 2 4
-0.240859 -0.120965 0.827367 44 28 37
-0.244559 -0.120006 0.81859 38 24 34
-0.26833 -0.0472708 0.911185 84 16 4
-0.260849 -0.0457625 0.876827 112 30 12
-0.266163 -0.0122769 0.878027 134 61 29
-0.179644 -0.477722 1.17629 112 58 40
0.584801 -0.426274 1.64174 126 102 59
-0.00166113 -0.430177 1.40939 192 138 105
0.67919 -0.39245 1.6667 102 94 66
-0.15154 -0.37125 1.50271 94 68 30
-0.116668 -0.373546 1.46979 105 62 32
-0.23479 -0.368621 0.807693 153 135 121
0.571555 -0.242435 1.5567 147 119 98
-0.295954 -0.255754 1.20068 159 133 116
-0.27314 -0.338191 0.799604 144 86 70
0.585047 -0.172285 1.68802 146 106 84
-0.182214 -0.316564 0.830445 158 114 112
0.385111 -0.162495 1.31529 122 50 32
0.73263 -0.0986117 1.5065 166 134 121
0.207139 -0.0586119 1.20497 156 134 122
-0.227728 -0.0880941 0.910743 120 23 8
0.25657 0.00468899 1.20939 110 58 49
0.277691 0.0257244 1.20504 120 95 86
-0.188424 0.0332245 0.938548 124 61 54
0.0508001 -0.573888 1.41767 33 13 4
0.0476053 -0.551317 1.39672 110 70 44
0.544502 -0.527942 1.58372 130 121 76
0.641202 -0.515837 1.43117 113 24 20
-0.223247 -0.451802 1.16497 171 108 88
-0.115991 -0.388175 1.49692 122 81 49
-0.1694 -0.353721 1.4016 105 65 33
0.553888 -0.355984 1.57388 88 62 34
-0.0540983 -0.330316 1.14414 229 177 138
-0.230004 -0.328084 0.792145 190 75 76
-0.247238 -0.301923 0.784565 75 34 26
-0.231781 -0.304555 0.774876 179 129 120
-0.275273 -0.256777 0.806322 168 134 118
-0.206368 -0.196048 0.855882 22 16 30
0.449455 -0.0702938 1.32357 80 59 44
0.322118 -0.074737 1.16628 100 86 80
-0.204187 -0.127588 0.894219 38 22 28
0.28002 0.0291649 1.23263 208 183 179
-0.282338 -0.0361554 0.927416 82 8 6
-0.242359 -0.0233746 0.954679 150 98 86
0.559572 -0.619351 1.55245 144 121 100
-0.255657 -0.505441 1.15597 140 92 68
0.0113411 -0.354415 1.32288 118 73 46
0.125056 -0.322793 1.42437 98 70 46
0.0199001 -0.318313 1.2532 142 94 79
0.718552 -0.29782 1.49757 153 121 106
-0.280827 -0.261624 1.17508 158 133 116
-0.0584788 -0.24294 1.25353 99 76 60
-0.211968 -0.226516 0.835944 66 2 2
-0.310407 -0.0197801 0.860031 162 114 100
-0.34338 0.00948206 0.890537 136 56 44
-0.290902 0.00558428 0.864001 161 68 27
-0.0194545 -0.546364 1.40609 138 88 70
-0.227855 -0.52704 1.24 36 20 8
-0.299792 -0.503066 1.18638 130 84 64
-0.0661139 -0.359392 1.33406 96 52 24
0.126244 -0.332628 1.42861 96 66 44
0.0355306 -0.323468 1.27591 148 96 67
0.0217329 -0.317258 1.24416 138 88 74
0.0275357 -0.274096 1.27982 100 51 29
-0.0702706 -0.266937 1.23026 148 97 84
-0.18587 -0.26073 0.98635 110 18 3
-0.157607 -0.0285131 1.20781 51 18 8
0.414219 -0.0683744 1.21243 150 128 128
0.321158 -0.0656391 1.1862 77 62 56
0.316109 -0.0225972 1.22414 138 114 109
-0.255266 -0.011272 0.925141 136 70 22
-0.305966 -0.0239316 0.861634 146 30 24
-0.286463 0.00187571 0.862012 181 112 46
0.0547065 -0.50071 1.39068 154 100 80
0.587827 -0.436038 1.64344 118 82 44
0.122058 -0.436275 1.44575 138 133 86
-0.328222 -0.406665 1.17133 118 113 72
0.123327 -0.357293 1.39697 24 8 3
0.132091 -0.349327 1.42472 141 119 98
0.12509 -0.332732 1.42709 100 68 46
0.55435 -0.312912 1.60188 92 70 46
-0.207341 -0.389783 0.824574 40 38 57
-0.205202 -0.376957 0.820155 159 148 128
-0.235641 -0.371994 0.803337 160 144 128
-0.0374471 -0.30956 1.14796 117 69 46
-0.245476 -0.262574 1.18602 56 20 12
-0.2097 -0.255421 1.06478 163 118 96
0.517726 -0.152816 1.6382 150 126 110
-0.179043 -0.265353 0.978991 116 19 4
-0.205181 -0.259488 0.901947 100 40 13
0.368998 -0.120095 1.16444 45 10 4
-0.228111 -0.170088 0.85001 65 60 74
-0.270102 -0.139806 0.887278 21 18 32
-0.225869 -0.122002 0.860259 22 16 29
-0.176421 -0.367364 1.41023 157 146 113
0.58131 -0.359507 1.55262 154 126 114
0.428464 -0.427676 0.421603 155 118 98
0.778614 -0.37618 2.23941 84 61 34
-0.198026 -0.477421 1.17092 88 34 16
0.105875 -0.410594 1.41028 142 94 76
0.67822 -0.457827 1.60515 158 144 108
-0.196974 -0.473716 1.17242 87 30 10
-0.178111 -0.391031 1.26676 100 64 36
-0.033901 -0.593639 1.51187 124 115 73
0.60954 -0.279916 1.61202 103 90 65
-0.187928 -0.383376 1.20694 160 114 92
-0.232297 -0.427331 1.1684 111 59 44
0.499563 -0.438024 0.663754 96 65 46
0.780842 -0.438634 1.61273 168 138 116
-0.212721 -0.187716 0.844832 67 64 72
-0.199802 -0.184972 0.864507 85 78 85
-0.179468 -0.390733 1.255 96 56 24
0.0646366 -0.515754 1.40885 114 76 54
-0.21325 -0.175262 0.873416 24 15 33
0.638646 -0.568778 1.40342 158 110 84
0.0171533 -0.523935 1.37816 178 115 90
0.0681597 -0.515598 1.39561 116 77 54
0.680778 -0.432101 2.13568 144 106 75
0.24032 -0.458944 0.826674 90 56 36
0.584101 -0.30886 1.5729 49 12 5
0.834828 0.00238048 1.60383 166 140 121
0.638652 -0.568693 1.40263 148 102 74
0.572325 -0.396088 1.61619 100 54 26
0.731447 -0.201348 1.52974 175 148 134
-0.25621 -0.292592 0.796875 170 99 95
-0.209028 -0.162883 0.870502 123 116 120
0.388912 -0.0648649 1.18992 80 64 56
0.533158 -0.228343 1.62204 139 114 95
0.667271 -0.178063 1.61395 58 46 43
0.575365 -0.395793 1.60759 86 32 8
0.0798393 -0.401134 1.41 75 28 12
0.570772 -0.391228 1.60424 154 126 93
0.0197696 -0.298085 1.20628 138 84 72
-0.164267 -0.256211 0.964352 153 79 42
-0.219607 -0.175206 0.848622 21 17 30
-0.0217919 -0.513861 1.38455 62 16 4
0.0699529 -0.420948 1.41898 62 20 10
-0.148923 -0.230612 1.0061 130 30 24
-0.213795 -0.18127 0.84545 20 17 30
-0.220369 -0.126687 0.857355 24 14 30
-0.329375 -0.304282 1.16399 114 88 65
0.68288 -0.216855 1.54439 164 110 88
-0.202499 -0.258545 0.9523 157 140 119
-0.223576 -0.170202 0.845042 90 84 96
-0.13268 -0.236204 1.19676 96 48 27
-0.281342 -0.0521874 1.18234 186 139 115
-0.304128 -0.0267819 0.860963 145 30 16
0.0500809 -0.521709 1.38423 44 10 2
0.573061 -0.308051 1.60314 163 130 110
0.792528 -0.322167 1.54427 152 86 61
-0.00723989 -0.347385 1.29725 160 116 88
0.806499 -0.295002 1.53983 133 89 66
0.799329 -0.288993 1.53101 112 65 40
0.79229 -0.270563 1.53682 174 138 118
-0.261299 -0.315093 1.1906 109 58 34
0.775526 -0.247596 1.54992 70 30 14
0.576409 -0.217241 1.61036 89 65 50
0.808082 -0.213399 1.61135 60 38 20
0.82294 -0.177312 1.59192 31 18 10
0.599561 -0.063701 1.5291 118 93 90
-0.291 -0.235466 0.793168 166 128 101
-0.130349 -0.0356638 1.21941 136 88 66
0.332023 -0.0726534 1.17076 60 48 43
0.327838 -0.0651772 1.1599 69 51 46
-0.0118292 -0.425188 1.40627 124 70 40
0.574543 -0.379914 1.59887 117 77 54
-0.19383 -0.427987 1.23311 54 14 2
0.10091 -0.318631 1.42332 50 18 5
-0.140928 -0.321161 1.18106 128 86 62
0.781243 -0.237848 1.57202 150 114 90
0.552999 -0.187439 1.61782 92 53 28
0.815832 -0.193388 1.60208 147 122 100
0.817423 -0.184911 1.60199 44 24 10
0.327913 0.050437 1.23184 96 76 78
0.756261 -0.726887 1.53485 215 172 151
0.751198 -0.410525 1.54 164 142 134
-0.186595 -0.416239 1.23442 60 21 5
0.0919493 -0.342998 1.42303 159 106 84
-0.00184515 -0.345862 1.31898 137 93 66
-0.249377 -0.320466 1.16955 103 52 29
0.583185 -0.238421 1.59137 135 108 85
0.553298 -0.189963 1.60666 98 58 35
0.733207 -0.128981 1.48963 158 115 94
-0.255539 -0.317427 0.788638 170 92 90
0.38675 -0.158433 1.32268 127 70 51
-0.00991627 -0.0306467 1.34819 178 128 106
0.328547 -0.0796253 1.18444 144 133 130
0.646499 -0.563371 1.4325 136 92 70
-0.184922 -0.478509 1.18542 128 75 60
0.772872 -0.308411 1.53459 131 100 89
0.577835 -0.238723 1.58701 157 127 108
0.535515 -0.194885 1.63688 88 66 44
-0.230644 -0.377788 0.801767 144 128 121
-0.29032 -0.256625 1.19566 154 128 108
-0.24519 -0.303615 0.777673 177 136 128
-0.0995606 -0.0864808 1.26513 138 92 70
0.227176 -0.0496271 1.23994 154 126 110
0.0106318 -0.433993 1.40213 204 151 120
0.0714179 -0.41738 1.42859 60 20 12
0.573141 -0.31284 1.57319 146 112 92
0.759078 -0.249463 1.55317 154 125 107
-0.225232 -0.400027 0.799017 85 87 108
-0.188739 -0.309802 0.814037 132 56 61
-0.256242 -0.293042 0.786943 144 44 43
0.674016 -0.0434867 1.52348 104 50 54
-0.0941395 -0.0940489 1.24784 141 94 74
0.6893 -0.0164619 1.51771 28 9 6
-0.213139 -0.192283 0.84169 122 116 122
0.0576534 -0.498643 1.39593 140 88 74
-0.261528 -0.506105 1.12413 118 76 53
0.0459003 -0.458598 1.39153 49 12 3
0.068178 -0.29784 1.3619 96 54 39
0.583037 -0.210492 1.60981 138 109 92
0.715292 -0.216233 1.50959 168 137 116
-0.256278 -0.322534 0.783645 146 43 34
0.744871 -0.121878 1.49784 90 48 27
-0.181082 -0.203256 0.899656 166 132 118
-0.214962 -0.196001 0.832343 24 15 30
-0.233081 -0.515358 1.27525 44 25 10
-0.274851 -0.50376 1.18737 155 106 84
-0.2786 -0.355149 1.16471 100 54 40
-0.245151 -0.279733 1.11985 160 135 116
-0.189376 -0.29528 1.06608 58 20 7
-0.236342 -0.241837 1.20669 164 115 93
0.533948 -0.0101313 1.6003 83 50 28
-0.0992151 -0.0477505 1.27403 54 20 12
0.331086 -0.0765362 1.16106 93 80 76
0.54746 -0.532473 1.62681 102 88 50
-0.0242776 -0.514328 1.3711 67 26 16
-0.158774 -0.336866 1.20198 94 50 29
0.543177 -0.235605 1.61308 60 35 24
0.554525 -0.156065 1.71513 136 108 88
-0.196585 -0.338929 0.862748 118 29 22
0.641339 -0.109712 1.51897 208 184 174
-0.0714398 -0.0923089 1.34035 151 100 82
0.0174815 -0.0604643 1.36523 180 126 106
-0.0593386 -0.0368463 1.34872 180 130 105
0.36969 -0.0605735 1.18235 142 112 110
0.289853 -0.0158772 1.23932 145 109 104
0.789287 -0.442551 1.53769 158 132 116
0.625198 -0.526793 1.44155 105 79 70
0.344356 0.0225074 1.23379 112 53 50
0.627187 -0.42917 1.65699 97 46 15
-0.0435393 -0.405776 1.39812 96 64 32
-0.163764 -0.401551 1.21999 116 74 48
0.74372 -0.248327 1.52499 96 64 47
0.332778 0.0339479 1.24761 52 18 13
-0.278602 -0.329587 1.13144 86 50 34
0.308506 -0.082702 1.163 168 138 132
0.00669707 -0.545191 1.38404 94 50 34
-0.236604 -0.515856 1.151 128 84 64
0.800895 0.0849956 2.51024 58 36 22
-0.239901 -0.533331 1.14812 94 59 38
0.302092 -0.0703365 1.17439 186 164 153
-0.236114 -0.0296703 0.949893 145 97 86
0.0220005 -0.559511 1.38878 106 74 56
-0.175409 -0.469338 1.1967 105 40 22
0.141334 -0.356997 1.43585 96 68 38
-0.225276 -0.273233 1.16173 74 33 19
-0.147988 -0.231176 1.00459 121 25 20
0.142742 -0.363433 1.4548 128 107 75
0.289031 -0.0185979 1.25784 136 112 108
0.76905 -0.244461 1.55281 84 43 25
-0.170041 -0.466796 1.19315 94 32 14
0.3873 -0.0590208 1.19187 122 104 100
0.670567 -0.405824 1.61573 116 114 76
0.570416 -0.343672 1.5541 62 32 16
-0.172325 -0.469655 1.19404 91 28 11
0.67161 -0.403089 1.62091 114 114 78
0.625802 -0.418668 1.64766 106 70 38
-0.187256 -0.351148 1.45739 157 144 120
-0.218569 -0.41944 0.810207 62 63 69
-0.236002 -0.394977 0.794598 94 90 94
0.351536 -0.103707 1.19013 69 51 40
0.611901 -0.505216 1.43186 151 123 110
-0.125336 -0.379523 1.42319 130 108 75
-0.205365 -0.390164 0.822875 62 54 63
-0.214426 -0.375304 0.828157 161 147 131
-0.216768 -0.349117 1.49773 166 150 130
-0.213853 -0.377238 0.831199 162 144 128
0.767128 -0.723031 1.52798 212 170 150
0.628924 -0.375975 1.63471 153 135 102
0.565465 -0.344102 1.58252 98 69 55
0.563354 -0.24958 1.59223 105 79 48
0.777882 -0.226278 1.5718 54 26 12
0.403571 -0.0610485 1.20874 116 102 99
0.765664 -0.695827 1.56669 196 146 122
0.673632 -0.403605 1.63767 115 113 79
0.561627 -0.352585 1.53982 146 116 100
0.567519 -0.304788 1.59013 63 21 0
-0.133196 -0.0333956 1.22402 133 86 66
-0.15335 -0.0324776 1.20089 58 20 14
-0.225602 -0.172562 0.824949 38 32 44
-0.232794 -0.0479349 0.944389 110 46 28
0.630573 -0.441033 1.64386 128 99 56
-0.179729 -0.357108 1.42445 96 66 36
-0.210464 -0.123421 0.900024 47 21 32
-0.0260828 -0.519196 1.37297 167 114 92
-0.0317892 -0.505595 1.39016 164 106 84
0.70896 -0.0449275 1.48915 185 139 102
0.209905 -0.063654 1.19892 152 128 118
0.565428 -0.336575 1.60151 127 97 80
0.314005 0.0525271 1.22477 102 74 68
0.658957 -0.504483 1.43203 48 4 2
0.102382 -0.424937 1.44611 32 10 3
-0.21448 -0.190558 0.844029 121 114 120
-0.215255 -0.176125 0.87537 22 19 34
0.799796 -0.312901 2.28148 90 40 24
-0.0975382 -0.348087 1.42668 104 57 35
-0.0533706 -0.351103 1.32805 109 63 42
-0.035179 -0.527457 1.4086 134 82 62
-0.163685 -0.343899 1.4764 60 22 6
-0.328023 -0.349727 1.15138 109 81 56
0.662189 -0.20552 1.5574 44 33 26
0.22569 -0.0622607 1.28045 136 68 62
-0.221694 -0.161973 0.865353 22 19 34
0.572262 -0.352147 1.54734 166 134 118
0.593504 -0.0635788 1.52152 108 86 82
-0.268646 -0.0470408 1.17131 188 135 108
0.788046 -0.542427 1.40293 148 132 128
0.790723 -0.34417 1.55276 84 54 42
-0.317793 -0.290947 1.16526 126 92 71
-0.194849 -0.315668 0.835407 122 54 56
-0.207351 -0.125211 0.894753 42 16 17
-0.225483 -0.120348 0.855132 35 22 37
-0.249585 -0.0915061 0.837195 62 0 0
0.739988 -0.410109 1.51903 116 15 11
-0.302391 -0.38452 1.16948 110 62 44
0.596084 -0.308244 1.5777 46 13 2
0.062727 -0.295235 1.36623 101 58 40
-0.130889 -0.0241218 1.2411 129 80 62
-0.249306 0.0618024 0.849 124 24 23
0.0615031 -0.477862 1.39424 94 54 40
-0.186459 -0.296484 0.815971 134 72 74
0.748655 -0.110254 1.50099 158 111 87
-0.202306 -0.467197 1.16258 60 16 5
0.7206 -0.302582 1.52944 40 27 26
-0.324188 -0.290452 1.17298 102 65 44
0.664537 -0.117926 1.49786 114 66 44
-0.224091 -0.184572 0.826103 50 42 51
0.452112 -0.047588 1.3136 100 79 70
-0.239269 0.0562866 0.84126 122 22 21
0.763417 -0.689135 1.56967 158 112 88
0.0585675 -0.532599 1.39595 128 86 69
0.696248 -0.389229 1.58748 150 124 112
0.576314 -0.302915 1.59525 47 11 2
-0.211411 -0.179889 0.86781 22 19 35
-0.280036 -0.328001 1.17066 101 56 40
-0.0630713 -0.313285 1.15183 146 88 58
0.711555 -0.175882 1.48236 138 98 76
-0.211597 -0.511691 1.20742 149 96 76
-0.241798 -0.383653 1.18913 99 42 20
-0.0618605 -0.332545 1.15564 211 154 115
0.509687 -0.184689 1.66117 138 86 60
0.695061 -0.0471429 1.51301 119 28 28
-0.242809 -0.018678 0.916564 143 76 26
0.781039 -0.575325 1.26034 205 169 154
0.286091 -0.263204 0.677445 212 164 130
0.0222977 -0.559989 1.38724 98 66 49
0.324934 -0.159577 1.17097 32 10 3
-0.258276 0.0729457 0.922375 122 50 49
-0.0442643 -0.298484 1.14491 182 125 106
0.196407 -0.0681237 1.19994 222 205 195
-0.0423307 -0.409451 1.39722 100 68 30
-0.213737 -0.426635 1.16304 168 102 79
-0.184461 0.0261704 0.932124 125 19 21
-0.166806 -0.337234 1.4306 77 41 10
0.67271 -0.353118 1.00938 106 70 52
0.780137 -0.589993 1.44941 36 17 4
-0.299705 -0.00444886 0.866023 187 100 62
-0.100516 -0.0870231 1.26701 137 90 67
-0.0250474 -0.440198 1.42228 70 24 4
0.690975 -0.420452 1.57535 82 73 56
0.764873 -0.68828 1.5782 180 130 106
0.554535 -0.312512 1.59526 70 44 20
-0.196158 -0.347814 0.860085 118 58 43
0.622199 -0.526882 1.44561 128 100 89
-0.23436 -0.0536404 0.900458 158 97 30
0.371082 -0.0718361 1.17823 155 91 82
0.540596 -0.569935 1.60479 138 116 80
0.725035 -0.397591 1.53274 164 68 54
0.755803 -0.365707 1.52042 189 105 79
0.0560701 -0.30271 1.40796 51 12 4
0.0352745 -0.304161 1.27705 78 26 8
0.702877 -0.273191 1.51515 66 22 4
0.830297 -0.1998 1.59762 154 124 108
0.760783 -0.186899 1.55683 162 125 104
-0.2145 -0.261172 0.907267 77 29 12
0.339312 -0.193111 1.2181 94 68 46
0.343406 -0.193396 1.21796 126 106 84
0.260755 -0.102543 1.18901 146 97 88
0.195796 -0.0732352 1.20713 136 114 105
0.434196 -0.0641052 1.2943 138 124 114
0.428155 -0.0641997 1.26548 126 85 77
0.387331 -0.0955507 1.16191 62 43 29
0.571398 -0.386344 1.55537 109 70 42
0.779685 -0.274907 1.52929 93 66 63
0.557722 -0.247633 1.60478 53 32 8
-0.284926 -0.237366 1.23131 160 116 94
0.327135 -0.187094 1.23474 106 84 63
0.559033 -0.10734 1.5636 202 111 86
0.221026 -0.0653724 1.26548 162 133 119
-0.23936 -0.0398277 1.13486 180 130 106
-0.255784 -0.0164646 0.969355 157 112 100
0.561848 -0.529916 1.56399 107 78 52
0.787207 -0.350948 1.51501 117 74 53
0.696956 -0.279386 1.53087 106 52 26
0.71702 -0.277408 1.50511 148 104 83
0.764715 -0.267859 1.51733 101 66 58
0.542499 -0.254381 1.55061 164 138 114
0.83883 -0.0728949 1.57853 144 70 49
0.225466 -0.0714364 1.24915 163 134 120
0.256082 -0.0928172 1.18139 182 156 146
0.76306 -0.27068 1.50329 102 66 57
0.728508 -0.202209 1.51239 174 150 136
-0.329575 -0.145792 0.838559 166 134 105
0.413886 -0.0760715 1.17769 106 90 86
0.559496 -0.527281 1.53175 104 74 42
-0.204087 -0.511847 1.16262 74 42 28
-0.20689 -0.427369 1.24952 44 8 1
-0.279843 -0.353939 1.1729 93 50 34
0.798707 -0.21913 1.64505 62 36 20
-0.163908 -0.270102 1.00226 133 80 64
-0.240535 -0.05063 0.90851 158 102 37
0.13862 -0.411125 1.44665 86 64 32
-0.198907 -0.42575 1.2396 45 10 4
-0.0338899 -0.309701 1.14159 90 42 22
0.769091 -0.247821 1.54411 94 54 36
-0.023992 -0.253834 1.22077 97 74 56
0.19883 -0.0845336 1.19306 92 72 56
-0.290192 0.00348248 0.896848 136 75 32
0.541727 -0.616914 1.59188 104 68 29
-0.0406564 -0.305376 1.15266 72 24 6
0.529727 -0.250005 1.5727 102 83 50
-0.0261265 -0.260661 1.26764 162 104 86
0.701424 -0.234877 1.50535 182 143 118
0.724877 -0.128685 1.48448 156 104 80
-0.272868 -0.169052 1.08848 127 102 70
0.131799 -0.424768 1.45021 92 71 32
-0.0538461 -0.412327 1.42208 114 79 40
-0.0295021 -0.296444 1.14179 82 36 28
0.256779 -0.090128 1.18768 124 101 95
0.757123 -0.698636 1.52362 139 85 60
0.783304 -0.690894 1.57512 138 125 78
0.749245 -0.686003 1.51776 154 102 74
0.784474 -0.678808 1.54201 35 20 5
0.789405 -0.677374 1.54514 172 142 118
0.891454 -0.558051 1.43894 40 15 4
0.770699 -0.557611 1.44263 224 205 200
0.770516 -0.556572 1.37335 201 174 167
0.804459 -0.554112 1.3771 92 70 63
0.7874 -0.539799 1.40179 141 124 118
0.605777 -0.538123 1.44315 108 92 78
0.784193 -0.534204 1.43076 176 159 152
0.78286 -0.51844 1.38636 82 66 58
0.0157624 -0.525529 1.31861 90 55 26
0.753257 -0.51722 1.39947 90 64 54
0.759471 -0.512871 1.39353 64 40 30
0.93393 -0.507905 1.53142 81 54 14
0.762246 -0.509154 1.3927 66 44 31
0.772295 -0.504141 1.40301 156 136 128
0.802925 -0.50367 1.40733 116 98 95
-0.152629 -0.514893 1.16537 120 84 66
0.783636 -0.500331 1.47575 170 153 148
0.761402 -0.502327 1.38601 204 180 172
0.917607 -0.496916 1.50278 126 84 74
0.617303 -0.499252 1.4439 100 66 40
0.776656 -0.5006 1.37017 80 62 53
0.805498 -0.499793 1.40767 230 217 212
0.748657 -0.49156 1.40636 92 64 54
0.842303 -0.440464 1.6723 158 143 112
0.575462 -0.389727 1.6515 96 58 24
0.72061 -0.402169 1.5372 156 72 56
0.55296 -0.385628 1.58908 90 59 20
0.574511 -0.388583 1.53926 92 54 22
0.619071 -0.373905 1.68907 123 104 68
0.77572 -0.390819 1.51481 235 184 160
-0.201018 -0.355442 1.52063 143 130 94
0.625655 -0.359694 1.73374 96 75 30
0.632378 -0.367135 1.6466 58 28 4
-0.203835 -0.346026 1.49082 161 141 114
0.771844 -0.36963 1.53453 146 94 72
0.60344 -0.35177 1.58401 150 98 74
0.760187 -0.355208 1.52373 108 50 36
0.712888 -0.346743 1.51142 84 63 54
0.74719 -0.339776 1.47422 81 75 79
0.611859 -0.301164 1.64933 39 26 12
0.60611 -0.312102 1.55775 50 13 2
0.601268 -0.285996 1.67945 140 122 100
0.0160926 -0.311842 1.23534 74 26 10
0.777782 -0.304426 1.51879 123 82 66
0.737768 -0.300827 1.51557 41 28 30
0.832924 -0.265394 1.71232 160 131 109
0.0071716 -0.280189 1.20447 168 112 96
0.563824 -0.235757 1.58555 64 40 13
-0.0438594 -0.260479 1.18765 93 48 32
0.532593 -0.218878 1.61885 130 110 102
0.77004 -0.2441 1.55444 72 26 10
0.551708 -0.191455 1.60025 122 91 66
-0.197367 -0.272264 0.88495 92 48 33
0.732981 -0.210283 1.54736 60 38 27
0.831516 -0.211343 1.54734 148 118 104
0.839169 -0.204604 1.52102 174 156 143
0.896226 -0.157112 1.72616 160 124 101
0.768073 -0.166781 1.5552 124 108 92
0.532864 -0.0917364 1.59239 123 42 24
0.654566 -0.117263 1.5222 214 166 146
0.665817 -0.123084 1.4942 194 147 126
0.739728 -0.0993909 1.50506 158 124 108
0.556424 -0.0693197 1.52206 142 132 120
0.596788 -0.0650178 1.54062 134 108 100
0.817102 -0.0874825 1.55402 214 186 172
0.814156 -0.0835673 1.55642 206 178 162
0.755267 -0.0828411 1.51002 138 103 87
0.449211 -0.0747532 1.31814 94 75 60
0.325763 -0.0917525 1.14424 210 186 174
0.422582 -0.0791959 1.17192 98 77 72
0.333745 -0.0710054 1.14551 63 42 34
-0.304023 0.0226241 0.931875 120 72 56
-0.208019 0.0500568 0.956575 106 43 36
0.764484 -0.694608 1.54197 178 129 106
0.751509 -0.686589 1.53323 189 143 114
0.759751 -0.572855 1.34786 186 148 128
0.873826 -0.564982 1.39663 21 7 2
0.802781 -0.558834 1.41036 208 184 178
0.805328 -0.557308 1.44697 154 128 118
0.806376 -0.553447 1.35573 148 126 118
0.800199 -0.553002 1.40083 88 64 54
0.775091 -0.543212 1.38305 83 60 52
-0.0355823 -0.541973 1.38999 140 124 88
0.77062 -0.522738 1.37989 85 60 50
0.804417 -0.509677 1.422 182 164 158
0.755578 -0.509964 1.38834 165 138 130
0.774471 -0.507974 1.40118 105 86 79
0.771942 -0.499749 1.4053 90 70 62
0.841442 -0.499988 1.43166 119 30 24
-0.205462 -0.503201 1.25207 80 53 14
0.766855 -0.494135 1.39831 101 78 67
0.763387 -0.493654 1.3907 170 146 136
0.667046 -0.463701 1.51345 126 86 60
-0.218743 -0.471913 1.19383 94 37 16
0.845209 -0.445347 1.60729 94 78 56
0.845085 -0.420363 1.70151 118 76 34
0.833271 -0.404863 1.73718 148 122 82
0.69128 -0.413285 1.57978 128 116 98
-0.0926227 -0.384512 1.4421 122 85 48
0.580625 -0.382703 1.62908 90 14 0
0.684392 -0.384832 1.63901 151 127 112
0.710876 -0.395465 1.51509 156 127 108
0.688502 -0.37623 1.59639 140 124 109
0.82896 -0.37275 1.6011 150 120 104
-0.205192 -0.346037 1.49248 163 146 121
0.851532 -0.372267 1.54764 102 72 38
0.819385 -0.367913 1.55952 111 68 54
0.575214 -0.356093 1.56717 160 132 116
0.763107 -0.369796 1.51379 130 68 48
0.559054 -0.349854 1.5541 143 113 96
0.575782 -0.344249 1.5342 62 32 16
0.802752 -0.352229 1.54013 104 57 38
0.843157 -0.348314 1.53096 113 89 71
0.604995 -0.316439 1.58725 48 15 0
0.745018 -0.337523 1.48907 81 75 79
0.584903 -0.271841 1.72259 44 25 12
0.588329 -0.266195 1.70727 140 126 105
0.759465 -0.292836 1.4809 42 22 22
0.576926 -0.219229 1.78794 120 105 75
0.829745 -0.243352 1.68521 145 133 112
0.542228 -0.228763 1.63125 28 6 0
-0.0379731 -0.268021 1.15725 83 35 22
0.560866 -0.215715 1.67499 71 44 30
0.588182 -0.231318 1.60415 38 16 2
-0.107813 -0.24173 1.25721 98 52 37
0.775391 -0.243677 1.53876 122 79 59
0.522003 -0.214479 1.58363 110 80 55
0.504269 -0.199597 1.62014 118 90 62
0.311906 -0.180779 1.23843 138 82 58
0.81707 -0.092461 1.53123 210 181 166
-0.207009 -0.0987997 0.889405 100 17 5
0.319239 -0.0874489 1.15543 198 173 162
-0.244152 -0.100077 0.833656 65 4 4
0.313715 -0.0781536 1.1446 196 178 170
-0.252372 -0.0781965 0.875976 157 110 94
-0.29796 -0.026124 0.862365 167 76 51
0.27276 -0.00306462 1.17626 143 38 34
-0.290656 -0.00387199 0.899788 122 50 29
0.785754 -0.726679 1.52864 158 123 90
0.752639 -0.685686 1.52883 212 166 138
0.864788 -0.652657 1.77823 115 94 58
0.753764 -0.574426 1.40168 189 156 140
0.718244 -0.56994 1.36894 194 152 130
0.772844 -0.552277 1.37008 78 49 42
0.769311 -0.546176 1.38762 187 164 156
0.77536 -0.533574 1.43226 90 70 60
0.548723 -0.530594 1.56152 96 77 43
-0.0263098 -0.528543 1.37414 66 41 18
0.789778 -0.518685 1.42701 68 54 47
0.768994 -0.51814 1.39885 118 96 87
0.798714 -0.515312 1.41713 98 80 75
0.761124 -0.51091 1.39276 66 42 31
-0.0405682 -0.512111 1.40074 64 20 2
0.79592 -0.504768 1.4023 180 164 158
-0.237791 -0.516165 1.15042 126 82 59
0.75705 -0.502541 1.41604 186 164 156
0.809562 -0.501793 1.38369 204 190 186
0.810653 -0.497803 1.41242 99 82 76
0.0174634 -0.493617 1.33363 96 26 7
0.679679 -0.474246 1.47285 146 111 95
0.10944 -0.463961 1.45049 140 126 90
0.685972 -0.465506 1.42118 88 54 31
0.847707 -0.446698 1.58111 90 78 52
0.00466638 -0.434164 1.38388 162 105 77
0.771629 -0.421763 1.67323 74 38 20
0.604469 -0.423058 1.59892 158 109 78
0.577312 -0.391297 1.64332 116 85 48
0.678594 -0.393675 1.60381 106 102 80
-0.25563 -0.389012 1.24051 110 58 32
-0.195195 -0.347629 1.4806 157 136 108
0.586587 -0.373637 1.48858 189 158 140
0.859431 -0.373984 1.5763 120 100 57
0.0232767 -0.37011 1.3198 139 90 62
0.580921 -0.358908 1.54568 160 132 116
0.563647 -0.359302 1.50345 152 126 102
0.798729 -0.349457 1.52062 33 5 1
0.766899 -0.33324 1.53589 72 39 26
0.859696 -0.326559 1.55563 58 26 12
0.858532 -0.318775 1.5514 150 116 96
0.865317 -0.297434 1.67583 140 100 78
0.583824 -0.262014 1.7293 142 127 107
-0.0365472 -0.302369 1.13958 160 106 90
0.655121 -0.274064 1.55603 86 59 28
0.550168 -0.234991 1.59944 36 15 9
0.825037 -0.240378 1.64539 120 102 88
0.58073 -0.234824 1.56838 39 13 4
0.504312 -0.199135 1.6214 120 90 62
0.532209 -0.1789 1.62842 30 10 1
0.745129 -0.195813 1.56689 138 111 98
0.498469 -0.141198 1.66504 164 132 112
0.818656 -0.180457 1.61447 63 42 29
-0.207108 -0.181356 0.839865 20 16 30
0.603794 -0.0827679 1.47707 101 74 76
0.81924 -0.0939569 1.52666 209 181 166
0.219489 -0.0951987 1.18619 146 110 96
0.283173 -0.113026 1.12735 94 70 62
0.309693 -0.0887966 1.16284 180 117 112
0.716896 -0.0468162 1.43308 161 128 124
-0.236968 -0.0306316 0.952521 156 118 102
-0.255573 -0.0476058 0.876591 100 18 10
-0.240642 -0.0207613 0.912319 138 65 28
-0.310069 0.0222708 0.934671 130 92 74
0.341797 -0.00533079 1.15745 56 30 28
0.764004 -0.67236 1.45969 118 23 13
0.790631 -0.676904 1.54784 178 146 119
0.764552 -0.57626 1.37013 175 138 118
0.767185 -0.557157 1.39493 196 170 163
0.761361 -0.544427 1.4572 126 104 97
0.899226 -0.535733 1.44541 100 59 38
0.729153 -0.51091 1.58776 98 72 61
0.763624 -0.518894 1.38577 190 164 153
0.805688 -0.517355 1.42085 226 210 206
0.80496 -0.515262 1.3781 124 104 100
0.752094 -0.506808 1.41394 165 138 132
0.794042 -0.503522 1.42753 186 168 164
0.664711 -0.503411 1.40388 34 9 4
-0.211874 -0.503541 1.20834 166 111 90
0.860043 -0.480837 1.45319 114 98 84
0.685741 -0.477776 1.40786 167 132 118
-0.275895 -0.46895 1.13864 144 98 78
0.850522 -0.448946 1.54099 90 78 52
0.614156 -0.43562 1.5556 89 44 18
0.76046 -0.413315 1.7549 84 48 30
0.674567 -0.40618 1.59741 106 109 77
0.677089 -0.385535 1.59943 74 76 50
-0.13582 -0.372211 1.47058 96 62 30
0.749741 -0.390206 1.52328 156 78 53
0.599217 -0.379693 1.43976 186 155 138
0.575941 -0.356485 1.55971 160 132 115
0.810425 -0.358761 1.6136 48 14 6
0.858174 -0.369686 1.54939 118 84 49
0.603756 -0.344416 1.63393 34 10 2
0.836727 -0.364975 1.53917 177 141 120
0.1032 -0.344266 1.39794 168 116 96
0.0110171 -0.347383 1.30192 108 64 32
0.621441 -0.307827 1.65671 192 200 190
0.852226 -0.325177 1.57941 174 147 129
0.833227 -0.316632 1.56187 106 69 48
0.554838 -0.293189 1.59629 113 82 57
0.586364 -0.298109 1.57944 145 108 90
-0.0476788 -0.325753 1.11085 73 28 8
-0.204648 -0.346112 0.868015 123 66 48
-0.2101 -0.289337 1.14144 50 16 7
-0.285575 -0.259275 1.19284 154 129 115
-0.113044 -0.284804 1.1194 152 99 75
0.00474149 -0.276852 1.20723 178 119 102
-0.278645 -0.253819 1.19318 122 97 80
-0.0225636 -0.276446 1.15591 62 18 8
0.522186 -0.21389 1.6101 149 128 106
-0.167523 -0.283833 0.855149 160 130 114
-0.231989 -0.263431 0.911886 104 64 47
0.745851 -0.197061 1.56464 135 107 94
0.816954 -0.186846 1.63726 50 24 12
0.822921 -0.186247 1.60834 180 154 139
0.523698 -0.16016 1.58745 163 134 116
0.719596 -0.135497 1.52402 112 69 48
-0.214003 -0.190277 0.842176 120 112 117
0.550528 -0.0626195 1.54252 142 132 120
0.832529 -0.0873726 1.52573 192 155 138
0.199061 -0.0808884 1.19075 120 91 78
0.275004 -0.10792 1.14021 94 70 62
0.466039 -0.0884623 1.27879 92 73 58
-0.284841 -0.0651352 0.899835 164 130 114
0.426609 -0.0784768 1.16466 185 166 160
0.295142 -0.0139347 1.1426 148 97 88
-0.252879 -0.018954 0.870613 128 66 27
0.71198 -0.569427 1.39259 206 164 142
0.790111 -0.53599 1.38844 164 146 139
0.0163368 -0.545917 1.37215 57 19 6
0.597665 -0.527313 1.46009 88 72 62
-0.0695893 -0.528464 1.43197 62 36 14
0.765909 -0.518633 1.36799 182 157 146
0.764109 -0.518174 1.4228 134 110 100
0.799745 -0.504658 1.3825 171 153 148
0.85762 -0.480243 1.47187 112 98 83
0.694738 -0.477952 1.40541 124 85 60
0.710493 -0.463389 1.46584 202 168 152
0.58974 -0.439171 1.72028 138 66 32
0.76574 -0.422125 1.75355 166 146 117
0.692167 -0.409201 1.58812 152 129 112
0.672704 -0.402194 1.61566 72 80 58
0.621123 -0.379216 1.67571 131 106 72
0.714154 -0.397154 1.52645 122 35 27
0.786009 -0.381785 1.57547 115 74 51
0.597636 -0.36657 1.57097 158 116 97
0.558362 -0.359777 1.53519 63 39 14
0.601383 -0.357069 1.56977 126 78 54
0.607477 -0.35051 1.57193 154 108 87
-0.0585126 -0.337162 1.37114 147 100 72
0.820794 -0.34788 1.5862 174 117 90
-0.134717 -0.336028 1.13569 102 56 30
0.597076 -0.26727 1.63805 63 35 16
0.0317678 -0.301531 1.20355 83 30 16
-0.0177133 -0.287031 1.24143 165 109 94
0.0234747 -0.272711 1.28759 84 35 20
0.763746 -0.247905 1.60024 183 124 102
0.825075 -0.192805 1.64094 80 51 39
0.696367 -0.185205 1.58029 155 130 120
0.896064 -0.166193 1.71674 117 83 58
0.637291 -0.181066 1.51802 93 78 59
0.662577 -0.169931 1.54659 94 76 60
-0.171439 -0.218853 0.931701 166 141 116
0.857438 -0.135619 1.68118 76 48 26
0.365282 -0.146851 1.36609 132 72 52
0.828038 -0.0961453 1.56148 152 90 71
-0.283791 -0.0453799 1.17911 174 124 101
0.845387 -0.0765594 1.57179 75 36 28
0.236231 -0.0829608 1.19812 98 72 63
0.449686 -0.0767771 1.31363 116 97 82
-0.197986 -0.104364 0.919986 110 26 20
0.301747 -0.0791069 1.1479 162 87 82
0.41418 -0.0524975 1.26661 133 69 60
0.356748 -0.088186 1.12869 88 74 72
-0.304503 0.0161931 0.929401 140 106 90
0.753303 -0.716701 1.52136 150 90 60
0.603095 -0.663763 1.60609 116 101 70
0.871423 -0.566054 1.4284 14 6 2
0.79325 -0.505674 1.39925 134 116 110
-0.282382 -0.49824 1.30797 147 94 72
-0.204053 -0.489463 1.13645 104 55 40
0.596166 -0.443447 1.63493 152 133 88
-0.25255 -0.450124 1.12713 106 68 52
0.743569 -0.417993 1.47663 122 52 39
0.768084 -0.384957 1.56115 199 146 122
0.607071 -0.346103 1.61466 40 16 4
0.0256796 -0.347033 1.28445 102 58 29
-0.298678 -0.346363 1.12418 113 80 54
-0.15624 -0.338339 1.19735 92 47 22
0.0407957 -0.331913 1.24574 70 27 10
-0.273303 -0.314457 1.18403 36 6 1
0.0395741 -0.299037 1.23314 98 48 32
0.829217 -0.264417 1.68622 150 132 108
-0.0354155 -0.2608 1.25927 164 104 86
0.793954 -0.215073 1.59382 112 88 74
0.530093 -0.159647 1.6883 134 107 90
0.523379 -0.156206 1.68108 47 22 3
0.818522 -0.193011 1.60533 46 22 10
0.691663 -0.177384 1.60699 230 208 198
0.825234 -0.184479 1.61263 178 154 138
0.818517 -0.174085 1.61689 31 18 7
0.800958 -0.161318 1.58506 164 140 129
-0.181966 -0.214281 0.93996 162 137 113
-0.182161 -0.209403 0.929848 133 97 44
0.663475 -0.134432 1.46697 212 164 144
0.651528 -0.056079 1.55379 218 196 190
0.645493 -0.0285254 1.61456 222 202 196
0.628569 -0.0440987 1.50568 152 124 115
-0.149463 -0.0220498 1.21932 71 26 15
0.666121 -0.0383253 1.52647 118 62 62
0.78327 -0.0680669 1.47558 135 56 52
0.177579 -0.057296 1.228 215 196 192
0.234781 -0.073866 1.1703 160 132 120
0.345466 -0.0881022 1.1324 86 71 62
-0.237451 -0.0528424 0.89023 94 11 4
-0.30731 -0.00771126 0.918631 118 64 52
-0.298809 0.00914603 0.9565 140 72 26
-0.307957 0.0164275 0.932776 137 108 91
0.768675 -0.725736 1.53535 167 116 84
0.737268 -0.705678 1.51074 150 142 95
0.824033 -0.575229 1.45683 28 19 14
0.714989 -0.570249 1.36657 146 104 78
0.735299 -0.557954 1.36005 114 64 36
0.68098 -0.517345 1.36573 132 16 12
0.637302 -0.502841 1.44159 154 126 116
-0.236714 -0.486475 1.1668 88 41 28
0.613405 -0.465335 1.58081 147 138 95
0.656697 -0.460748 1.52901 128 105 74
0.079656 -0.443889 1.42489 124 78 57
-0.129941 -0.453324 1.18494 146 139 91
0.688056 -0.419601 1.56593 108 101 76
0.746414 -0.412452 1.60873 98 84 66
-0.325541 -0.408603 1.1649 156 142 116
-0.32916 -0.393236 1.1783 72 34 18
0.774495 -0.391095 1.52006 192 142 117
0.691414 -0.368158 1.58456 160 132 120
0.121529 -0.349015 1.36944 166 114 94
-0.336391 -0.350589 1.15911 114 86 57
0.691688 -0.300442 1.57311 165 135 122
0.760862 -0.308491 1.54044 14 8 12
-0.326791 -0.283896 1.21131 114 70 53
-0.202752 -0.209463 1.22475 170 118 97
0.669791 -0.200468 1.56849 44 16 8
0.863871 -0.147213 1.70009 36 17 10
0.85625 -0.133339 1.69376 92 64 39
0.723526 -0.12012 1.47421 169 128 108
0.831706 -0.0949197 1.54448 158 90 68
-0.133041 -0.0336826 1.19674 64 22 16
-0.19898 -0.105833 0.915809 120 20 18
0.814529 -0.0467532 1.49866 39 24 18
-0.253668 -0.0137664 0.944033 137 68 31
-0.251101 -0.0134573 0.923211 142 74 24
0.785874 -0.698911 1.52771 150 138 90
0.758614 -0.691168 1.48668 156 108 82
0.707208 -0.572194 1.40877 150 106 80
0.845837 -0.554811 1.42385 156 130 118
-0.0117838 -0.55825 1.37863 64 32 18
0.580365 -0.534641 1.50862 88 84 70
-0.101472 -0.538962 1.51526 176 116 88
-0.32153 -0.51997 1.21775 120 77 56
